-0.21200156 8.290242 -2.5268931
0.21794055 7.679561 1.7251425
0.34973055 5.5524473 -0.11414313
0.6277451 7.751896 1.2994524
0.24117102 13.568135 0.14231464
0.48606297 6.815267 -3.2582364
1.8182249 0.026606718 1.4201052
-0.49845928 6.1593423 1.8335629
-1.2248648 5.5290136 1.0506206
-1.6999383 1.453016 -0.22189718
-1.1934607 9.50875 0.36306065
1.6778327 8.644678 1.0665078
-2.6264005 7.6927996 0.59286356
-0.8513805 11.043178 0.7521214
0.62096745 4.611571 1.3130884
-2.15841 0.78521967 0.91919255
-0.52339613 5.705988 0.055324443
-1.3335004 5.861377 0.79606414
2.2434127 -1.222233 1.2010089
-0.6074345 2.10999 0.8035707
-0.21834354 6.859741 1.1657687
-0.8135715 5.222404 0.15091895
0.04251833 8.159667 -3.4972413
-0.78524715 7.437564 0.33033612
-1.2303723 2.7050679 1.32042
-0.9549302 7.4857845 -2.5022173
-0.72610366 9.57576 0.97115767
0.038574576 10.335649 1.0362574
-1.8320966 4.581855 0.8695269
-0.42130813 7.0222034 -0.46153173
0.0036934637 10.429491 0.5869104
-0.24924898 6.866394 -3.1969268
-1.5625138 3.4602818 -0.3569395
-1.6630149 1.9249442 1.1345795
-2.3693464 -0.68835986 0.88404
-1.0213329 1.0351946 1.102299
0.14701512 9.31829 0.92722064
-0.41420758 10.922809 0.19784273
0.6343427 7.695326 0.054850105
0.04762484 13.225503 -0.027302226
-2.1379435 3.0690775 0.5365169
0.039147556 8.334145 -3.8309438
-1.575775 7.7002907 0.18816724
-1.3864197 4.9843717 -0.3376388
-0.3816767 12.41445 0.49301496
1.2755059 3.417719 0.8565882
-2.0416253 2.5019848 -0.020769758
-0.9620763 4.0190997 0.51177245
1.1961222 5.6772113 0.509186
-1.0916651 9.842534 0.89280784
-1.1508427 8.266335 1.2431309
0.049537454 3.4270163 -0.418278
-0.86633956 13.388841 0.5879677
-1.0370094 5.78691 1.5620925
0.8145255 1.6358805 -0.25802848
-0.03633655 9.130277 1.2444078
-1.1229681 4.724415 1.2113143
-1.7675349 7.5602674 0.6545836
1.162172 8.25094 0.9372167
-1.2720027 6.035539 1.4179168
-1.0232419 4.7241006 -0.20070061
0.62372106 8.157748 1.3246185
0.20329383 13.173773 0.35605904
-0.44545358 5.016162 0.013590708
-1.1711054 9.793342 1.2570294
-1.3155793 6.5525627 0.4074225
0.8007147 9.731032 0.086967915
1.4975578 3.12296 -0.3491076
-1.3409109 8.293354 0.88764906
0.35343686 10.631259 0.44213787
0.53927535 1.1156113 0.23071496
-1.559435 1.2934812 1.3662374
2.2923512 8.399349 1.0100605
-0.037356373 9.579008 -0.068601176
1.0388534 7.1701713 0.5407367
-0.056153998 7.525713 1.5381418
2.0170457 -0.39234236 0.43874872
2.2605348 -1.4409552 0.8297738
1.3968856 2.8968637 -0.019954091
-2.5576956 9.634482 0.7239408
-1.4026936 10.061888 0.2762559
-0.90016854 7.3237023 1.5509226
-0.83941376 3.847919 1.1950244
-2.2488978 0.4289428 0.33844155
-0.012886934 12.448423 0.68724346
-0.00065740274 9.749808 0.37304053
-1.4036634 7.8429213 -2.7891753
-1.5370009 0.42876583 0.9583648
-0.29804444 6.6653104 -0.55340683
-0.5831247 2.429381 -0.105815895
-1.9460272 0.432623 1.0990326
0.2559342 7.522496 -0.032868754
-0.73378885 10.075443 0.8530095
-1.770092 1.0435731 1.2191106
-2.5015914 7.53409 0.24188614
1.0221227 7.034919 1.2731625
-0.4470972 11.76578 0.7025991
0.65478355 5.2603564 1.6864393
-0.47708556 2.8860824 0.38851768
0.7023715 7.0462327 -3.0340853
-0.36690953 2.5433414 0.17458826
1.959318 1.4401321 0.23775464
0.3316329 1.8519949 0.20067102
2.3536198 9.048511 0.88056123
-0.14414369 4.8965697 -0.6846245
1.6945683 2.106963 0.9606825
-0.003933421 7.34776 -2.7058508
-2.6292715 7.662238 -0.33850813
-1.3700343 7.5075994 0.46612477
-0.7300839 12.051575 -0.32243556
-0.9800493 10.610023 0.9365081
-1.3650377 -0.32478538 1.2063454
1.9575758 7.1577177 -0.5385946
1.5383242 0.63925105 1.1230891
-0.52511823 7.3725333 0.63691825
0.9275414 7.145403 -0.16375147
0.26257858 5.304772 1.6409135
0.59304565 8.109276 0.09091519
-0.00785556 4.7486978 1.419599
-2.1132095 0.7911095 0.14608717
-1.0231856 2.2945704 1.318861
-1.998031 -0.67349607 0.9354192
-0.96930856 3.5579631 0.89527845
-0.27072942 8.077236 0.8423057
-0.36883336 8.500705 1.1040099
-1.7203376 10.569408 1.1343174
0.12805997 7.4644327 -3.3394148
0.31286138 8.963336 0.9087527
2.1429057 -3.066494 0.8140464
0.7134368 3.811979 1.1269989
0.49192837 6.287855 0.07019877
-1.9935706 3.5957978 0.129828
-2.7548788 7.3702445 -0.44109336
-1.8714949 1.376143 0.49008787
0.9408312 8.778373 0.6615033
0.900194 5.5889683 1.5920728
1.0990406 0.034103498 1.0772913
-1.1590326 3.1929607 0.049262416
-1.389333 6.7454524 1.141993
-1.9502695 10.413273 0.4976017
-1.4405024 7.2568827 -3.2756798
0.026176138 9.551971 1.2624091
-0.7005611 12.822915 -0.38895693
-1.5507512 0.9365387 0.20130408
-1.0303751 6.588398 1.1145048
0.09408338 5.6882296 1.6590127
0.904176 7.254864 1.623941
2.0982947 7.2007656 -0.15638977
1.2685792 0.03940966 0.60167
-0.17518811 11.654904 -0.65924484
-0.11141463 3.6390553 -0.1297301
-0.22291043 6.1496496 0.38131413
0.2671549 7.2372503 0.58406526
1.2098994 5.276283 0.7074096
-2.0367408 8.566782 0.7476033
-0.484168 13.167849 -0.41660565
-1.4659142 5.591501 0.35165006
0.81276447 3.0047505 0.048445843
1.425785 2.7191787 1.1003736
-0.5037775 7.630252 -0.0046772594
0.4624848 13.226598 -0.03714049
-0.16233978 8.2930355 1.6063387
-1.5614754 3.4159188 1.2187444
1.2466818 9.76641 0.18373163
1.9069688 -0.77033406 0.33422375
-0.8739032 6.977755 0.057503156
-0.5809444 11.380608 0.63593364
-1.9731811 9.407548 0.5340268
-2.6044133 8.989421 0.7673285
0.23424882 7.2713556 -0.40948316
1.0193639 7.839322 1.315256
-0.3341051 7.4396954 0.29406178
-0.6496671 4.7912993 1.0894976
0.9914535 5.2473855 0.028991396
-1.1083304 2.6647007 0.55150753
-0.9319292 12.705275 0.33917236
-1.1241515 4.234266 -0.46037784
1.1704957 3.0889125 0.23532678
0.34146696 1.8103335 0.59941965
0.8428261 7.6249676 0.9629748
-2.1366155 7.16363 -1.1566074
2.2502308 -3.9456112 0.35727704
-1.7587256 7.212447 0.81967247
2.7471437 7.3970757 0.4668271
-0.8071394 1.3084532 0.85912323
-2.4649706 -4.606327 1.3831704
1.4488099 6.3080263 0.8246074
-1.6432892 -0.5120287 0.94676113
-0.5974797 12.683726 0.6117141
0.85065174 2.843102 1.1151428
-2.6605825 7.1212196 -0.19594681
-1.4482982 8.782354 0.8855536
0.6975075 9.832837 0.48523846
-2.1784508 10.121397 0.38175285
0.08196149 9.385751 1.6147423
-0.77800286 8.391517 1.2068547
-2.514917 -3.900406 0.7475526
-1.5767888 6.439024 0.9901515
1.4971702 5.505609 0.8376545
0.021932496 10.874643 0.60930634
-0.9280327 3.554656 -0.11298212
0.51678175 2.5117688 0.5928354
-1.8779358 -1.3463802 1.5308045
-0.36630028 13.592269 -0.3193909
2.0010426 10.350976 0.5701565
-1.1042693 5.8382864 0.4308999
1.0412172 0.73499554 1.13385
0.17524117 4.859725 0.6783493
-1.3962286 7.8123827 1.2543248
-2.175197 7.180812 -0.7617233
1.3644522 0.8885727 0.0772099
-0.15144098 8.795305 0.47378576
0.24740627 2.4670868 1.0534265
-0.98615533 9.078539 1.2996576
0.034404743 3.9857273 0.052026477
-0.74857026 5.3609905 -0.52222
-1.7726102 9.779339 1.3351717
-0.1202424 8.152045 1.2385167
-0.83316123 4.376878 -0.17252071
0.20322545 12.807372 0.5227303
2.7055044 7.34822 0.060031325
-2.217719 0.019505454 0.11501376
0.8459463 8.064859 1.641934
0.6958897 2.7923462 0.322839
0.492211 5.5041847 0.5655366
-0.5807504 3.2248204 1.2910166
0.26518622 8.411424 -3.5096157
-0.6637846 5.857074 1.3943462
0.6056411 6.530141 0.73170906
-0.26460752 7.836938 0.27470586
-1.985472 4.661659 0.47039178
2.2299366 7.9934916 0.7719001
1.8747779 8.838007 0.77504504
1.217658 3.7728112 1.27669
-0.18807785 11.969971 -0.3116954
-1.8087393 9.888709 0.97149485
-0.16132681 5.5602736 0.80315185
1.0733769 1.647989 0.082978435
-0.35234642 2.904626 0.7791702
-1.1282886 0.5888814 0.96858704
1.4178159 7.060218 0.62174255
-0.8152703 7.2889285 -3.5823338
-0.03455648 6.993444 -2.8941567
0.81538594 7.8182926 -3.3052502
1.8318425 1.3972183 0.8248766
-0.4917554 3.5481033 0.40656784
-0.65785885 9.131872 -0.16945049
0.5712851 7.085104 1.5961739
-0.20695461 12.080395 0.68504393
0.10113747 12.468856 0.32366598
0.7436 5.6705294 1.2745602
-2.1192725 -1.0202719 1.515944
-0.36218387 6.5680976 0.93212247
-0.12056396 8.198239 0.10503354
-0.6967665 7.346937 -2.8170931
-0.5963476 8.749097 1.7098237
0.18255606 5.936667 0.13045456
-0.7689975 9.154955 0.95502466
-1.1834239 8.020079 0.18775694
-1.6299268 0.71898705 1.23163
-1.8644588 4.671262 0.08734247
0.19071653 8.646827 0.611017
0.47756368 12.854982 -0.10792212
-0.97092164 6.933535 -3.6990926
-0.8022503 5.513406 -0.1173248
-1.9477922 1.3648915 1.2818683
-1.7435682 2.9076734 0.40868255
-2.6894174 8.355484 0.6084578
1.1638224 4.8553934 1.3488827
0.35387695 10.276679 0.7314457
1.7587352 10.492283 0.8326913
-2.8745012 7.5548363 0.35634774
-0.97486585 4.851311 0.8674152
0.9842938 10.072358 0.2669334
-1.9895388 -1.0252578 0.747825
1.2382177 6.7780056 0.30794036
1.0791345 10.791107 0.7771767
0.69459605 8.212396 0.4781013
1.2492833 3.4101734 1.228705
1.5251838 3.1446083 1.0324126
0.026216853 8.363019 0.9261889
-0.20794825 7.511687 -4.271027
-2.278151 1.9568374 0.4920017
-2.8040917 -4.5454445 -0.7106277
-0.7835704 9.058828 1.653386
-2.2023375 -2.416039 1.2916608
0.9508818 10.068302 1.4782352
-2.0897758 3.8998773 0.43246886
-0.21485807 12.971348 1.2685616
0.9510678 0.37711298 0.8828154
-1.9833467 -3.9384208 0.8344311
1.406819 4.7327933 -0.18521929
-2.595561 7.5005693 -0.7668992
-2.1672268 1.643438 0.30745646
-1.5317402 3.1756232 0.7331671
0.5707295 4.545169 1.7005558
-0.88404465 3.4122646 1.3410672
-2.2906413 0.023070414 0.90547603
-0.4798907 8.34792 1.4260445
2.1679177 8.680868 0.5937921
0.9190971 5.0819407 -0.42457595
-1.3115387 6.64791 0.7688151
-0.14178395 13.777728 0.33822185
1.1076295 4.2223067 0.9066389
0.016017826 5.626841 -0.64840823
-1.5285081 2.4968584 0.78592324
1.120012 4.9559426 0.93512326
1.4170027 10.23394 0.73298573
-0.7773516 5.581294 0.35064563
1.0494616 8.759763 1.4048111
-1.5843161 8.593411 0.16663836
-0.94410515 8.272722 0.87739456
-0.42066643 2.2377503 0.50329876
-1.1864427 5.5804706 0.039482452
0.3839245 2.9311218 0.5641394
-0.6031496 6.4099517 0.32705712
1.5717839 8.960385 0.51362616
0.19161102 3.57034 1.4701062
0.60560864 9.967123 0.8673231
-0.114537 7.3161664 0.6478317
0.09306136 7.9295835 0.9097593
-1.9879757 -0.6183046 1.6054026
-1.2206296 0.28009367 0.3977981
0.056156896 11.461299 0.061384387
-1.0158279 3.6080186 0.56507665
1.292858 7.344339 -2.0308626
-0.017643398 7.725404 -2.6237826
0.23065579 9.936307 1.1087378
-1.5026468 5.3430634 -0.20639116
1.4038726 9.820701 0.56612873
0.4701497 5.94687 1.0159549
0.65925753 5.285027 1.3253055
-1.0901258 10.231325 1.1314112
1.2383069 -0.8416759 0.26572892
-2.1349733 -4.591538 0.9463692
-0.3599751 12.98486 0.9145796
-1.0948699 6.791048 -0.26671857
0.08419716 5.194367 -0.6681838
0.59828186 1.1162555 0.6965865
0.14367397 8.435698 -0.1853676
-1.5570935 2.2113483 -0.29106307
1.2821325 4.8979807 0.5538877
0.19882634 6.563623 0.5345504
0.16459073 9.064606 0.53702974
0.4942622 5.9357195 -0.15272562
1.9687551 1.8968844 0.3695562
-1.4443578 7.1343474 -2.8957074
1.7554001 1.083864 1.1047076
1.1427557 7.619747 -2.198555
0.13625558 4.19046 1.1132468
0.42669395 9.184763 0.2175368
0.87468034 -0.7504222 0.5844199
0.520312 13.334057 0.32452983
2.0966024 -4.0144854 1.0812765
-0.6890656 2.4491334 1.134498
0.5216304 7.0183024 1.2170109
2.1518207 7.1970863 -0.91966915
-0.45603424 2.4795697 0.864426
-1.0420941 2.8408864 0.9658715
0.92156243 4.8329387 -0.08012668
-0.8572356 8.160861 1.5738101
1.038526 9.598495 0.45272145
-0.14279477 7.907692 1.5934006
0.36853608 6.8521404 -2.821392
0.4269273 12.718683 0.8815757
-0.019406894 8.590403 0.15363277
1.0603087 3.7839284 0.53438574
1.1829665 5.6996994 0.014835224
-1.85765 0.55865556 0.6419881
-1.0616899 7.297307 0.58360064
0.47979578 4.410316 -0.55072075
-0.48726064 10.03941 1.1690819
-1.8434048 2.4932842 0.53829116
0.903842 2.2972763 1.2846823
1.1313574 0.19563967 0.019609438
2.0320134 7.5271883 -0.7798003
-2.2989204 0.06823033 0.51876533
-2.1895983 2.66457 0.613479
1.1762273 1.4766258 0.83997935
-1.1476167 4.0737963 1.5722002
0.6311687 3.610398 0.0846955
-0.51849174 3.9022768 -0.56669855
-0.06684099 13.667234 -0.07609658
-0.8269367 3.1102645 -0.04349289
1.6486671 -0.86134833 1.453874
-2.8480372 7.4490385 -0.041084446
-2.0842226 -1.7264997 1.4187112
-1.6037478 6.1787496 -0.0710428
-0.068134464 3.8444896 -0.51274395
1.4435089 8.55 0.2641221
-1.3026978 4.7209086 0.57439315
2.013996 -1.1651977 0.6265387
1.0929012 6.639787 1.3137509
-1.6683756 4.056114 0.45801422
-1.5147374 8.937794 1.2828392
1.6713835 9.740494 0.27428424
-0.535409 8.075642 1.1087272
0.35018983 9.226642 1.302253
-0.62104374 8.381926 -3.7073488
0.5687447 3.454513 1.4695412
-1.1510241 9.7680235 0.07763587
2.2520325 -1.8915024 0.78150076
0.3984823 2.5209033 0.23248053
-0.36869746 7.518887 -2.5569553
-0.10065425 4.806701 0.019707061
-1.1336788 10.145325 1.5246145
0.050834626 7.6083107 0.30685177
0.5510495 12.566965 0.47363418
0.5610312 7.225696 0.037063465
1.7096024 3.9894433 0.78061044
-0.63474715 8.104514 -3.4131026
1.2391493 2.2712145 0.30208617
-0.84764445 13.157169 0.94902724
-1.4464418 10.0599575 1.0475376
-0.34616163 7.179872 -2.7200122
-1.4054146 2.398796 1.3340766
-1.0848112 3.1766655 0.6492237
-0.25728253 11.417946 0.8169788
1.208968 6.2349014 1.1347816
-0.30880967 13.311785 -0.054018814
1.0587515 9.423493 0.041404627
0.8650727 1.6501137 1.1180782
0.91075623 5.069123 0.3664851
-1.3679081 2.0196097 1.357933
-0.61516947 3.5060322 1.005816
0.9291407 4.6033864 1.0620605
0.7309298 1.7599449 0.7542522
-1.9001142 3.247365 0.74553186
0.8423847 5.3380847 0.64884514
0.95379007 10.706128 1.1630315
-2.2937503 7.1703362 -0.34944788
-2.2642474 2.281772 0.7283958
-0.88522154 4.4678392 0.97635293
-1.0381043 7.754653 0.5196988
1.101611 6.795047 -0.06313011
-1.6082394 4.6174436 -0.24387102
0.66678727 9.364467 -0.063925214
1.3836118 7.575487 1.1749715
1.5790647 0.7465048 0.39215234
-0.49501905 5.4422917 1.831274
-1.9607035 -0.5263003 0.5775213
0.059640754 4.5981655 0.36548302
0.8773185 8.493616 0.23702326
0.34664884 8.788044 0.2504576
0.16204372 7.0331 1.3599354
-0.18289538 5.9963207 0.04594955
-0.3348114 9.527371 0.24116841
1.5022662 7.4598403 0.8007226
0.48120534 2.7810128 0.9475914
0.2918177 5.153414 -0.09398042
-0.364738 8.868381 0.12419837
-1.4771659 2.8389459 0.006762017
1.044959 6.4939127 0.88261676
-1.013253 5.6438055 0.7124265
-1.2462608 5.991907 -0.20125975
0.2091973 7.2512302 1.7177515
0.41681927 9.1039295 1.672109
1.333797 8.013639 1.2593479
0.74278075 9.604289 0.82004297
-0.19393583 12.388701 -0.40382808
1.4895062 0.28287354 -0.20090881
-1.0111172 8.490834 -0.19955826
0.40757543 9.6368685 0.31754774
-0.48619992 8.028527 -3.0069191
-1.7103074 9.772397 0.60589266
-0.39876172 9.878043 0.8142312
-0.6818538 7.8662934 -0.26977667
1.0215356 9.04849 -0.04012441
-0.2112842 12.68375 0.1764913
-0.2356853 4.894584 1.0844017
-0.13107501 7.2658877 1.273761
-0.4142414 4.605084 -0.66340256
-1.9239388 -4.60867 1.369787
-1.5619806 9.736321 0.22263654
0.047009382 13.200941 1.1348466
-0.7328244 2.7337503 0.10064444
-1.250815 4.367466 -0.092001766
-1.1487896 10.717275 0.58013415
-0.5875795 6.9778852 -3.4358828
-1.7486594 3.8022184 -0.21273366
-1.7499144 9.0784235 0.7079288
1.4042404 9.882011 0.98090094
-0.7504375 7.056418 0.4243008
-1.4431474 2.5988088 0.3986988
0.5063583 3.2521708 0.20956948
0.11924691 2.8001585 0.8495503
0.72585005 6.190052 0.8226286
-0.9393896 4.1424465 0.13511758
-0.960209 8.942093 0.5848155
-0.8419404 13.159964 -0.0924376
-1.442165 1.074826 0.564941
-1.127473 5.1504455 -0.067637675
1.5923707 4.5957494 0.14463364
-1.7448603 0.35772887 -0.14256416
0.009822828 7.6801753 -2.2588017
1.3302543 6.2972884 0.39371678
-0.4155627 4.9003005 1.4520837
0.41968828 1.4708132 0.7672096
0.04048054 3.4213111 1.1277326
-1.0209663 7.67315 -0.23773257
0.43853197 10.27154 1.1426305
-0.004004079 6.7777143 -3.8275301
0.22088389 5.499297 0.27224272
0.714572 10.93473 0.8752813
1.1180197 2.4752243 -0.45795742
1.9264754 -0.055638976 0.28181842
-1.0139097 0.98243827 0.7103522
-1.613074 2.9923952 -0.330865
1.6110275 -0.82159555 0.07499477
-2.6198275 8.493179 0.2474918
-0.80331343 12.426817 -0.13055503
-0.9443854 7.9626875 1.1922699
0.5162724 7.892191 1.6358043
-1.1133039 2.8717728 -0.2829051
-0.5800931 1.8552734 0.5108532
-2.6452413 7.808182 0.063419834
-2.193222 0.40168986 0.7462751
0.3808452 6.8890276 -3.6590931
0.18324758 12.081645 0.69053155
0.82255006 9.338403 1.6210905
1.9382975 7.4612746 -1.1564744
-0.45862776 7.6395974 0.9434927
0.5167395 5.6660953 1.6350938
-0.82917714 13.497404 0.21477565
0.05020645 7.206911 0.2462569
-0.9884825 3.0295982 1.3796444
0.13441615 2.6145473 -0.12644137
1.7286632 1.382948 -0.067172565
-0.4356897 5.385265 -0.19455346
-1.3914143 7.8781877 -0.15119596
-1.7056043 -1.638648 1.3385631
-0.9299547 7.31534 -3.9844193
2.172385 9.274537 0.22442703
-0.28087932 5.9068346 -0.6242427
0.05131893 7.6341558 -2.9988983
0.6539337 3.9033232 0.4230268
1.2278941 5.299154 0.324346
2.127569 9.784872 0.9550818
1.9735428 -1.7613966 1.0201792
0.16949321 6.8660407 1.7157655
0.50721854 8.733503 1.6236048
1.4359238 2.7115095 -0.38601923
2.2579255 -2.530595 1.1384723
-1.7791344 1.7456795 0.28627992
-1.2082934 7.796641 -3.1727896
-1.2679464 7.2161007 1.4580005
-1.4891363 0.3741708 1.4205058
-0.15980883 12.300006 1.1038022
-0.3982221 7.1963882 -3.7680566
2.0903835 9.670743 0.28710395
-1.1432191 7.172844 1.0346099
-0.021536276 12.065272 0.3453912
-1.4689093 0.2997512 0.11267437
-0.21080509 7.5089407 -3.5378904
2.5676627 7.369993 -0.3211274
1.1686783 1.770726 -0.3449977
-2.2482228 8.258255 0.49355215
-1.378959 8.798677 0.4621745
0.15197924 2.4844618 0.64644665
0.59756345 6.050132 1.3492732
-1.000585 3.7195983 1.5479102
0.25412226 8.331957 1.3368098
-1.0478879 1.8983942 0.6993597
1.9431862 0.6743257 0.379115
0.9119985 6.856434 1.6196054
2.5082746 8.657966 0.83066845
-1.3434168 9.238639 1.4111986
0.7542902 10.66803 0.555386
-1.3858143 7.0970583 0.7702305
-0.7748313 8.698581 0.8921475
-1.7289662 3.3144782 0.38866416
-1.2261809 6.96399 0.4347506
2.6060627 -3.9983962 0.2938229
0.28399074 6.833217 -0.46120653
2.2141652 -1.035069 0.88200706
-2.6444685 -4.268732 0.7019598
-0.30392012 8.557793 0.74612576
-0.81555665 3.1635213 0.9719073
-2.076668 -3.4711452 1.2290428
-1.8271703 8.819803 1.0295539
-0.8430874 2.6725037 1.358829
2.0556972 -2.863841 1.1718371
0.18678445 3.6265101 0.101790786
0.75628096 2.5158172 -0.44464216
1.5602406 1.4205264 1.1372026
0.43544158 9.376739 0.62534595
-0.3311467 4.5190964 0.3596552
-1.7044158 4.9083424 1.1058031
-1.3133073 1.1220878 1.2595223
2.6858478 -4.6037416 0.013927154
-0.28042346 3.2267144 0.5026685
0.24409936 3.8540342 -0.27533153
0.6650745 7.8974695 -3.6468065
-1.9383552 -0.17046516 1.5630293
0.27573365 8.326253 0.27345735
-1.1582873 4.9917307 0.29885256
0.37346593 12.383329 0.71801585
-2.6693873 8.780071 0.48364463
0.81419057 1.4108995 0.65133065
1.3333519 0.7646457 0.83542997
0.73120856 10.458152 1.40913
2.0217583 -0.08847559 0.71548694
-0.35894927 7.492356 -2.2025492
-0.5499599 4.1387515 0.45626822
1.9233311 2.3018847 0.33453274
-1.8119564 10.197436 1.2679205
0.23210981 6.1708345 0.44259462
0.716793 5.483484 -0.44664776
0.84888566 4.884724 0.70713437
-0.80202144 12.728251 0.99169207
0.76941013 6.7620296 1.0028673
-0.37241778 9.082365 1.6249099
-0.35027197 6.7818284 -2.5855527
-0.99433994 4.4105864 0.6225009
1.4395554 -1.3711085 1.1182661
0.013928463 6.5819554 0.94745183
1.2597905 3.769891 -0.073010385
-1.3459187 9.617048 0.7288267
-1.1892439 7.0311136 -3.4339972
-0.5835919 12.514954 0.16936661
-1.8396128 0.74354506 -0.1660452
-0.68133587 8.8002405 1.2909629
0.13059168 3.5899332 0.7786572
0.41104797 8.118596 1.0331903
-0.24988723 8.236111 -3.2080815
-0.21568763 7.3317347 -0.4530103
0.35441872 3.608468 0.41805243
-0.8487963 7.401891 -0.016429292
1.7762774 9.912062 1.1857466
0.4364791 7.4732475 0.321306
-0.4369646 12.184845 -0.1444224
-1.4225472 2.8558059 0.8165864
-0.69751513 6.9234724 -2.5685685
0.71721524 7.1001573 -3.5021195
0.75592303 4.7080064 -0.5873564
1.8058875 -0.6409867 1.0700446
-1.1106884 3.7616599 0.1843335
-1.1363041 5.432108 -0.33776572
-1.1349876 7.377907 -3.0060215
-0.293401 3.9000828 0.66706616
-0.43379253 13.710493 0.09631499
0.5711947 8.986978 0.5845373
-1.950545 -0.14412576 0.4363308
0.9002114 5.9414783 1.0565919
-0.58331627 6.597272 -3.252441
0.81131995 -0.31505644 0.51025486
1.4268517 8.979629 0.15885536
-1.3481755 3.8453686 0.43921402
-0.0034742893 12.8032 0.8900906
0.11594457 7.0147777 -3.3072245
-0.95405024 13.114077 0.2778437
0.3678826 12.16683 0.27504697
-1.2665589 -0.15385514 0.8975634
0.65470296 5.20707 -0.17262214
-2.3201509 -3.7937489 1.086568
0.8267705 3.9900956 0.7630882
1.0412025 5.2196226 1.4488556
1.3582482 10.001968 1.3772398
-1.3649076 2.3931878 0.057744157
-2.01218 1.521511 0.0027220966
1.9630104 -1.4695444 1.4016312
0.69915855 0.39239687 0.5334302
0.20117794 11.954727 -0.4436573
2.4382672 -3.7126236 0.5784057
1.4311732 -0.12794745 -0.105886236
-0.33871526 8.065819 -0.30087745
1.6673764 -0.030371746 0.5896552
-1.1761793 2.1377013 -0.26672167
0.1477811 6.227111 1.2611817
-1.5235834 5.7247095 -0.15696932
-0.9180434 9.459796 -0.056507107
-0.7385345 1.7334826 0.17489845
-0.19946668 8.507471 -3.596534
0.7605749 1.2315229 -0.13780797
1.5394537 5.0467362 0.12041837
-1.1712697 2.0140424 0.15383309
0.15251979 4.5615287 1.7759944
1.477145 7.536202 -1.8317254
1.6948745 7.487932 -1.464752
1.7920611 7.201368 -0.90628713
0.22182678 4.1178136 -0.63836384
1.0860431 5.4741125 -0.2742985
-0.73610145 10.806307 0.47497323
1.1017611 3.1479282 -0.19786812
-0.716665 6.5715585 -0.4142744
-0.20949349 7.523225 -3.929851
-0.55490565 2.1312265 0.14997038
-1.3116956 6.2015424 0.5609105
1.7016212 0.67938626 -0.050634895
1.1148806 1.9444168 1.2882043
-0.5780807 8.368773 1.7685919
-1.0989181 5.1660385 1.5913908
-1.173778 2.507289 0.97855735
-1.5772127 7.3207393 0.078685544
-1.7198972 5.015876 -0.060874138
0.58797807 2.1778133 0.15511511
-1.6826489 8.468384 0.9564683
1.181707 3.0378082 1.1206353
2.2073271 -4.284483 0.5467472
-0.4953666 9.5295725 -0.097912475
0.39676854 9.588364 1.1014048
1.8945171 0.34706196 1.2238158
2.1530273 8.739359 1.069017
-1.6723938 6.5348306 0.2154198
-0.21423402 11.614642 0.39181533
-0.28389838 6.606231 -3.5702703
-2.7680316 8.008715 0.4125371
-0.79889655 1.7174478 0.90922093
-0.12573576 6.613318 -0.22951771
-0.8905999 4.792722 0.5012648
-0.08635478 13.401909 -0.40889487
-1.6322033 -0.17117365 0.69833916
0.1771348 6.656604 -3.094246
-0.87135625 9.506026 1.3243972
-0.86628497 2.0931916 0.41352603
-1.1858989 1.0109967 -0.01315608
-0.49884263 7.3362145 -3.315572
-1.3818047 0.8664576 0.90769964
2.5032835 8.098583 0.3714256
1.5619649 -0.6213011 0.41188163
0.7774275 6.010297 1.6564205
-0.2602214 11.511808 -0.21983576
-0.54432756 5.941975 -0.24715552
-1.855355 7.9307127 0.5460486
-0.82472867 4.8185225 0.0854828
-1.5280535 6.0571084 1.1443611
1.3936839 7.1409674 1.0797981
-2.2655325 1.4412097 1.0205994
-0.35789558 6.8277726 -3.9463341
-0.54093325 13.282747 0.2607623
0.6378268 7.233597 -2.6677887
1.0777231 -0.51171166 0.30889925
1.2073115 5.5482125 1.2601949
0.73755246 3.282745 -0.19899149
-1.4981775 8.365799 0.53600806
-2.478326 8.158712 0.13465834
0.12769167 3.2647016 0.38640392
-1.5063455 9.214924 0.9935295
1.2619758 9.098471 0.70950156
0.50900805 6.5223756 -0.4033877
1.1635625 10.389711 1.3300377
-1.2868016 -0.09184346 0.45335144
-2.3234782 -4.5929723 0.47867277
-1.0224963 6.530499 1.5218692
1.30799 2.43959 -0.07945767
-0.59509176 4.740913 -0.31811714
1.3855073 0.67639244 -0.27847257
0.3134504 11.011327 0.97086215
1.4786749 1.5541279 -0.2858969
1.4222025 -1.0348376 0.9199937
2.3507278 -4.260806 0.13271116
1.7412305 0.0063120807 -0.019280938
0.6075763 4.5403438 0.056352843
0.1430155 7.7636023 -4.142927
-0.5219125 8.071705 0.0791244
0.19860147 8.107616 1.702171
-0.4772625 3.8659234 1.0518446
-0.9689938 2.3877075 0.18249191
1.7230957 0.91873866 0.7337591
0.5492007 7.4706516 1.6192068
1.6671199 4.813578 0.4300613
1.3095305 2.2505121 1.1242253
-0.13324007 7.396952 -0.08240863
-0.7657718 7.5738506 -3.1460333
-2.6932137 -4.1952105 0.3108216
1.6805438 2.8664305 0.7969106
-2.0180042 -4.2260413 1.5682929
0.18031067 7.3803043 -4.1356635
-1.2920302 -0.6636854 0.9398667
-0.8603307 3.3840356 0.27864954
-1.6189573 -0.40061814 0.35712472
0.6516767 6.699313 1.3361555
-1.9141855 5.066562 0.31345218
-0.35440183 7.922571 -2.6509144
0.8098893 2.4328542 0.2520018
-1.2647796 4.34568 1.0896767
-0.26876828 5.0418634 -0.3349272
-0.731031 12.061381 0.08882875
1.5187496 3.2766902 0.33721673
-1.3769265 7.486015 -0.17828947
-0.8350666 1.2573664 0.4002356
-1.1310964 5.393589 0.38571227
-0.99669355 6.860791 0.78725016
2.6160965 7.6658764 0.2863621
-0.3174442 5.3654847 -0.62205184
-0.009478012 9.460525 0.5878396
-0.36825386 7.0876474 -2.3328443
-0.4006506 12.780716 -0.5811774
-1.4177982 1.6445582 0.12849122
-1.1183894 2.7501526 0.11388171
-0.59787416 5.6973424 -0.5527798
-1.6440246 7.5788336 -2.5204258
1.9716684 -2.3671217 1.2583325
-1.63663 4.483459 1.2135098
-2.076891 1.994799 0.11560648
-0.6467073 12.431116 -0.511412
-0.66151947 5.8152742 1.7748827
-0.7661038 9.570427 0.31030425
-0.6374764 5.727128 0.7227726
-0.05000567 6.7733436 0.20803645
-1.1471906 9.4122505 1.0610418
-1.7297359 2.593126 -0.26567996
1.9360136 -2.080221 0.77098787
1.7433593 -2.1056788 1.058093
-0.9721155 7.8913946 -2.5507426
0.80540794 3.9645648 -0.22310567
-0.95810556 6.2443466 0.34779534
0.58212674 7.0138965 -0.32191736
-0.72636944 9.841424 0.029197237
-0.57760364 9.836145 1.5597328
0.46739852 3.9589546 0.07500194
-0.87894356 6.1874413 -0.1418064
0.9296496 5.302162 1.0427824
0.7409617 10.239514 0.624427
0.8259505 6.911662 0.19210833
0.7725132 0.04884842 0.37788114
0.3544643 8.085765 -3.850821
0.9881195 3.5800295 -0.23399407
-1.0228574 8.096407 -0.19604899
0.46944457 2.3442297 -0.25920242
-0.6457088 11.18633 0.3520212
-1.5768826 5.338201 1.1515106
-0.6547693 8.317515 -0.23560661
0.3765876 9.603102 -0.04359952
-2.320238 -0.32081637 0.26294866
-0.12375199 4.381663 0.014689718
0.3664478 8.360563 -3.0706663
1.4056051 -0.12055099 0.90338206
1.7914164 0.36389846 0.15990733
-0.08651356 3.807052 1.0867232
2.0547726 1.0058246 0.9036359
2.0869658 1.1073225 0.5147725
1.43578 10.120856 0.3118061
-0.34848928 5.717212 0.4068761
-0.54134643 8.743411 -0.23840699
-0.67705745 3.760785 0.67999417
-0.55591154 3.1920023 -0.4024213
-1.3777978 6.408637 1.369554
2.3463147 7.8064194 0.14409119
-0.92214334 12.554612 0.65524006
-0.6349151 13.485572 0.8713369
-0.25107908 4.212395 -0.603625
0.3987526 2.7349408 -0.39934325
1.0832698 2.4660516 0.9158108
1.2800614 5.1002426 -0.21024258
3.0660205 -4.577013 -0.15677217
-0.6079198 3.6610818 1.4516399
-1.2111019 3.6157143 1.1488385
1.1387901 4.150311 1.3309237
-0.78127253 9.73064 0.63980377
0.3313607 6.9147367 0.26572493
0.5864715 8.591532 0.54217935
-1.3747536 3.7548206 1.4678537
-0.82328725 2.0803585 1.0897043
0.38837525 7.274668 0.9412184
0.9913891 9.363025 1.1174159
0.6272706 5.58044 0.9337966
-0.98455375 2.48403 -0.2148516
-0.667714 9.450648 1.6507746
1.434706 4.7792344 1.0435774
0.12356785 6.472411 -0.55175793
1.5717095 9.235166 1.2457601
0.9137017 3.5722902 1.3784479
-0.70180345 7.275489 -2.3668218
-2.2318823 -0.6869298 0.17006452
-2.2705755 -1.3876691 1.3162155
-0.3281659 6.4987164 1.7430546
0.81622463 6.681614 -0.23725142
1.765125 3.074141 0.022702951
-1.9444262 3.860395 0.79819274
1.0095953 8.281776 1.3367949
-1.4253187 10.3969145 1.3486171
-2.0740547 -3.0323758 1.2605965
2.2702286 -1.6769542 1.1780473
-2.9822462 -4.5822124 -0.34504178
0.7347395 4.214095 1.5749786
-1.8937232 2.8556166 0.82229596
1.9454623 2.2221296 0.7134362
-0.086703695 9.656193 0.89933354
0.45869935 6.4109507 1.1352597
0.827218 8.490782 1.6394393
-1.9621708 4.310167 0.26062194
-1.0957953 8.672048 1.1866907
0.56243277 3.9681108 -0.5970449
1.4764414 4.359478 -0.1302942
-0.9224345 6.0562744 0.75433505
0.5909141 9.018568 -0.14287291
-0.50988233 3.1808927 0.14315383
1.7242298 0.54506534 0.7768379
1.3223507 1.8667815 0.4024962
-0.005586911 8.074944 -4.0878124
-0.60632646 4.554387 0.6517351
0.33022404 10.043116 0.45270514
1.6368918 4.1579943 0.10846953
0.9715661 7.521048 -0.12871578
1.1323787 1.3477333 -0.32839945
0.20728403 11.755892 0.35436928
0.108472586 8.384409 -2.7773616
-1.7378824 10.285074 0.856013
0.5301196 10.010984 0.113795176
2.1948555 9.396082 0.970374
2.0406187 0.022419982 1.105241
1.2513318 1.3278143 -0.009995738
2.5195255 8.588358 0.44994026
-1.7399502 8.129607 0.81388396
-0.18211131 11.214566 0.41288176
-0.16277784 9.812871 1.5146252
-1.2521173 8.028972 1.5461534
-0.1538369 5.946368 1.3781792
-2.3658254 9.570408 0.3839766
1.0818543 2.8372967 0.4864133
1.2955314 4.085592 0.22305964
0.97995174 1.3016515 1.0813496
0.40666512 7.745552 -3.1478648
0.19119617 4.834966 1.0595983
-0.24435106 3.2152033 -0.21553549
0.5331713 8.158505 -3.4128659
-0.18978137 3.4181924 0.15615483
-0.13576618 13.431346 0.3194939
-1.2637872 4.6075153 -0.46914494
1.977175 -1.0485504 1.418815
-0.8215911 9.918913 1.230572
0.08731278 8.082128 -2.438745
-1.9835714 -4.2365074 1.1216621
-0.6978863 6.505053 1.7597204
-1.8572774 -0.8316978 1.2409809
1.3876581 3.567871 -0.39121336
-1.6661265 -1.4346937 0.9883264
2.2664855 -2.762971 0.84965444
-2.361211 9.20227 1.1761179
0.8602066 1.9307387 0.03553456
0.05353754 7.0650887 0.9607696
1.5694501 5.0703998 0.79768836
-2.5334127 9.235243 0.44754308
-0.4964074 4.2001653 0.08227373
2.5702207 -4.3199687 0.9122024
0.99047863 4.2281346 0.46252263
0.017858926 7.5043116 0.9888147
-1.7301823 3.1156456 1.1113849
1.881433 2.6106362 0.5860782
1.4503607 4.0226583 1.0835541
0.7901819 4.222622 1.1317843
-0.021736149 4.523808 1.0495647
-0.28715348 7.9273314 -2.2777014
1.0859494 7.630168 -2.5881686
0.74173975 4.4380994 0.7281622
-2.329348 -0.3745865 1.0413315
-2.2421963 0.76918584 0.5210164
-0.11103777 5.38171 0.43786025
-0.49382403 6.849714 1.8183986
2.2404141 7.73827 0.4937962
2.554751 -4.592564 -0.63141847
-0.74117315 5.0986056 -0.23247081
-0.41075042 9.508086 0.6598164
-1.8501229 -0.7370712 0.26910132
-0.2421756 4.6077447 1.7842528
-2.7596955 8.612387 0.8927089
1.3713975 0.49407685 0.15778372
-2.633148 -4.6019444 0.14229588
-2.5007846 -4.200748 1.0892653
0.059588905 7.2055063 -3.7082531
-1.6352713 3.6540449 0.1890012
-0.95364213 7.770687 1.5393578
-0.6990295 12.330753 0.8383225
-1.4722953 4.0073366 0.03956221
1.5075958 1.2331773 0.2181321
0.30238768 7.0908012 -2.5401106
-2.634614 9.304958 0.913014
-0.0132763 3.1947503 0.7688366
-2.4676611 7.174903 0.08624538
0.002614645 13.17659 0.6968786
-0.47938117 10.521329 0.24892217
1.8269033 1.789285 0.015760664
1.1450722 6.066708 -0.055870213
-1.3633583 4.793464 0.006463125
-1.535628 7.4382215 1.1606648
-1.5809414 9.398569 0.51650435
0.5773409 5.332868 0.2119577
-0.8790244 8.367129 -3.3698027
0.6674829 8.557619 1.2677195
0.6888788 3.3660076 -0.5816793
-0.87484497 8.538373 0.48722133
0.35672113 13.071175 0.9530162
1.3275355 7.4282312 0.39579383
-0.30839026 5.3172393 1.0957553
0.27819452 7.4339294 1.3222607
-0.17373542 4.970408 0.3909263
-1.406631 5.083624 1.380429
-1.0075426 5.8355346 1.1175056
0.8436298 0.7320279 0.7335627
1.9586877 8.382358 0.8719216
0.23591724 4.540347 -0.2575085
0.8723139 3.2479262 1.2299125
1.575737 2.052653 0.16350514
-1.1116127 5.147452 1.1387696
0.19342272 12.304205 -0.55649555
0.039704546 8.00042 0.48935488
1.8542039 3.0408504 0.45619148
-1.2501013 2.1271012 0.9650402
0.35091713 3.170718 -0.52694786
-0.024874322 5.558589 1.2621179
-0.19116822 11.813204 0.052200597
2.3755956 7.4714737 -0.6654769
1.1039009 5.9029713 1.3955
0.25043273 2.7869089 1.2821339
-0.5633923 8.849789 0.52497584
-0.36120272 10.211994 1.4633956
-1.3085927 9.164529 0.66995156
-0.849306 7.737877 -3.5332167
-0.02251187 8.592219 1.3003117
-1.3118343 10.757951 1.1970216
-1.1515744 5.1277423 0.6748519
1.0941106 8.9872055 1.0442449
-0.71774536 10.442837 0.66458935
-0.5315099 4.8888235 0.36812416
1.1266125 2.657546 0.18239303
-1.6749644 4.1741223 0.915553
-0.18255983 6.4677067 1.3483734
-0.7105158 8.421127 -3.0287127
-1.5858669 -0.7264118 0.59591115
1.5418588 5.608168 0.39469704
0.39461824 7.8052006 -2.4301822
1.4999572 0.23092505 1.3132646
1.0666984 2.61312 1.258909
0.1812125 8.573191 1.6895084
2.187333 8.136286 0.21929473
-1.7753844 4.257241 -0.11022359
-1.4588609 4.747399 1.3885151
-1.6861484 5.6792502 0.9121464
0.50706375 7.562631 -3.4794638
1.7985564 3.6300282 0.64369154
0.7954801 2.7778566 0.7254498
-0.8451815 8.344752 0.121042065
0.010510893 8.535107 -3.2116866
0.63494724 3.1435957 0.8761953
0.39448512 3.308247 0.6731627
-2.0954127 2.7701101 0.25577205
-1.725373 8.702616 0.5886543
-0.073655315 6.267333 0.7141447
1.4753388 1.2401611 0.756986
2.3308294 9.485005 0.62146044
-2.035384 8.75507 0.33418444
2.1305344 -0.7456184 0.68293434
-0.4905067 12.969152 -0.03862991
0.34153062 12.608607 -0.35376048
-0.44246128 4.507124 0.99314183
1.1822273 9.20592 1.4352367
-0.9197825 6.209617 1.2632183
0.20382859 7.0649724 -0.0956458
-2.0761676 7.4728775 -1.7062238
-0.4313243 12.098507 0.97607815
-0.21176067 7.1663847 1.6503721
1.1718588 7.176227 0.1650182
-0.38029274 7.248438 1.0070884
1.9700446 -1.9344164 1.3377252
-0.4329508 9.649199 1.219237
1.3538845 4.063692 0.6131852
-0.968732 4.038236 0.884731
1.1063851 9.18479 0.35998693
-0.13398443 12.0233 -0.681222
1.7117937 3.8912601 0.36555806
-2.2834592 8.500445 0.18341193
-0.75034446 4.586533 1.3813672
-0.355118 2.8369582 -0.10969141
-1.8315262 5.444521 0.47402972
0.47834548 4.671242 0.45740023
0.04492709 8.993085 0.12984395
0.41299734 12.523174 0.073733695
-0.6955643 6.1531363 -0.50788444
-0.97211796 6.441264 0.71205986
1.3615478 10.586077 1.0455314
0.22005464 7.9572883 0.057744518
-0.14556277 5.3704147 1.7011958
0.3319939 8.234544 0.6692118
0.4641625 3.8450437 1.57789
-0.88426423 10.461824 0.30282515
-2.3336253 7.5012164 -0.56120586
-0.6392232 6.698114 -3.6662297
2.135312 -4.306987 1.4083915
-1.7400928 5.8134613 0.12667482
0.11697147 12.788204 1.2075701
-1.5586661 2.0214562 0.05897375
1.2198035 4.857402 0.17588973
-2.6270642 7.291222 0.46273962
2.4299116 9.0231695 0.5067428
-1.1483068 3.5540497 -0.4287818
0.026132762 6.8984976 0.605908
-1.2875125 0.6857781 1.299513
1.2188282 0.5628061 0.59737706
-0.16523704 11.134831 -0.0071431035
-0.64694864 3.244728 0.6415231
0.87269956 6.467489 0.14702095
0.050467834 5.937805 0.9500127
0.5910879 1.3659868 1.0717145
-0.75386953 7.139237 0.8148312
0.28090718 10.502439 1.3899089
1.4248347 5.943665 0.19365832
-1.5694748 8.12783 0.19691548
-0.60794383 9.218811 0.59494764
-2.234058 -0.19336966 1.3483033
2.4370189 7.6251354 -0.14124432
0.4716588 4.2045074 -0.22459127
1.4908144 1.691711 0.75503486
1.812823 -1.0068326 1.0468426
-0.26515645 8.5193205 -2.9258952
2.224736 -2.3382082 0.7876032
0.18634601 13.608744 0.5332767
1.7495744 10.001429 0.6967091
-0.038968712 6.642405 -2.785536
-0.08282857 5.216214 0.043009922
-1.9508872 -0.3752969 0.074219294
-0.17107062 4.62551 -0.33617234
1.1313161 10.423968 0.4371685
0.17943282 7.5587916 -3.7499878
-1.3382123 7.511017 0.82681376
-0.56667554 10.1776705 0.108639605
-0.24562208 9.169886 0.38546148
-0.3958756 8.11229 0.48654205
-0.18861382 6.526387 -3.1756885
2.2272124 -3.214027 1.0937648
-0.93402946 6.6792803 0.37694135
-0.9500497 3.8893776 -0.49957132
1.1879084 10.15267 1.0525659
1.4112703 8.86524 1.2898486
0.11198203 13.499438 0.90584534
-1.0202428 7.7298527 -2.863332
0.53451896 8.525325 0.08306358
1.17187 8.793763 0.39291257
0.89346945 5.5774465 0.3034328
0.88634557 6.7924614 0.5545453
1.0811641 0.28422758 0.40300277
-0.32687727 9.330971 1.029807
-1.8851388 2.2156982 -0.14235805
-2.1403785 9.716336 0.7620533
-2.0095 -1.5394108 0.8078149
2.0633392 9.15156 0.60503507
-0.26422712 6.214085 1.072151
-0.55851996 6.1164103 0.09665506
1.7041764 0.15219352 0.930979
-0.6840873 1.5360157 0.5659591
0.11528319 7.6564226 -0.37645945
-1.6051303 7.2241077 -2.5955637
0.13117775 4.936414 -0.34979856
-2.10058 3.5031004 0.5004402
1.4246366 -0.14756532 1.2994303
0.74983305 8.372665 0.8554491
-1.7834674 5.42152 0.062387638
-0.112078466 8.055078 -2.8839328
-0.60220987 6.6169844 1.3796529
1.4937229 1.8731122 1.092884
-1.9838804 2.4973092 0.9108967
-2.174829 1.1091876 1.1793646
-2.0293622 2.1094382 0.98053026
-1.2873342 7.589822 1.5208924
1.134879 1.8581084 0.88513196
-1.711477 -0.9485868 1.5847032
1.0110896 9.792649 1.1252773
-1.0720049 1.6687928 0.3652619
-2.5928648 -4.60269 0.9291645
-0.6286316 6.0240073 1.0256462
-0.26352236 2.578148 0.5522017
-0.33941957 4.5291705 1.3546865
-0.745427 8.780388 0.14997154
2.0337625 -4.634315 1.2163255
-1.4531512 1.2742184 0.91525227
1.1038312 -0.1511782 0.2075046
-0.48108634 7.746859 -3.3613381
1.6201475 -1.259542 1.4044873
2.2590868 -2.1143608 1.1267447
-1.7010825 3.6631505 0.59273005
1.4206847 10.641729 0.6644961
-0.82965803 7.9702635 -3.1234922
-0.58015656 9.221784 1.3007975
-2.047918 7.190924 -1.5156173
0.104173124 5.211588 1.0372102
-0.53538096 4.948604 0.7528654
1.0617026 8.01912 0.5917774
-2.0109875 9.743159 0.30697104
-2.6407 -4.3388696 -0.15709698
-0.83441514 6.7751665 -2.907697
2.192492 -3.4488413 0.75229925
-0.9155087 3.2260969 -0.37736323
-1.6764363 1.568669 1.1210997
-0.18385115 13.058147 0.27277905
-1.6100641 -1.0009929 0.969513
-0.11523341 6.1603584 1.6496038
-2.2691007 8.795161 1.0481635
1.5384166 8.977746 0.9492934
1.1511645 9.581189 0.8012
-1.9359082 1.1177658 -0.046005834
0.19027662 5.2751102 0.6501643
-0.538042 5.272536 1.4437308
-1.0056221 10.124654 0.15671514
1.6818445 3.4121313 -0.14254136
0.8079469 4.8886447 1.5845898
-1.5307959 7.0714297 1.1587565
-2.4340057 7.4569926 -0.139265
1.8999933 -1.3679423 1.0486768
-0.33321214 10.627185 0.5642585
-0.7325331 3.5466642 -0.50921726
-0.11732753 11.07764 0.9701409
0.22429618 5.588115 0.8933698
0.51115364 10.138278 1.5274888
0.84153664 8.028945 1.0047032
-0.14471373 12.915886 -0.21172339
-0.10037357 4.1694007 0.37422535
1.0352757 0.70545125 0.29870492
-0.50541633 4.3189325 1.6458745
1.5981015 5.2345295 0.47536796
0.81612587 4.450207 -0.25842226
-0.24881242 12.302373 0.1309759
-0.59461635 8.341785 0.76876825
-2.3517942 8.37829 0.89132404
0.22641513 10.343 0.21590154
-0.82116616 12.304925 0.35484824
0.15690051 11.022823 0.2578889
1.6446785 -1.6908995 1.2788765
-1.1100821 8.791608 0.18953174
-1.1854715 7.2242026 0.16238822
-1.1811811 7.8915305 0.8931895
-0.2438585 13.411704 1.048991
-0.54591924 7.9901037 1.7866025
-0.44374657 11.388706 0.10682836
0.091278374 6.3763604 0.17235555
-0.4861348 5.36302 0.6754706
0.072870865 10.1722145 1.4482263
0.27025533 10.641084 0.8869035
0.9489831 3.8381417 0.1627875
0.14990604 6.453231 1.6933274
-0.17422785 10.325071 0.14215875
0.6754679 7.7573714 -2.7563167
-0.23949063 6.577005 0.51549375
1.3834265 3.1027243 0.64446276
-0.4774631 8.48197 0.38379332
-1.6948594 6.8118277 0.9107577
-1.0498534 1.837225 1.2409618
-0.01285194 2.873709 0.49043453
-0.059940714 10.717368 0.22429676
-1.9438288 -1.2628183 1.148375
-0.14303797 7.1072087 -4.1305275
-0.30023515 5.804236 1.7603136
-0.6199759 4.1798744 0.82725424
0.5963522 3.7013626 -0.2993017
0.9086182 7.3795156 -3.253726
-1.9490627 10.618623 0.8047896
0.26520845 4.7507105 0.060588013
-1.858111 -0.36524475 1.2381872
1.6043346 10.271738 1.1535553
0.7890137 7.472275 -3.6380835
0.8200584 10.219185 1.0908161
-0.37602276 10.8621025 1.2214112
2.0032458 8.515398 0.21462396
0.6091804 4.9355583 0.15222451
1.3348275 4.471653 0.4085007
0.7794269 4.2224474 0.1333017
0.24204844 7.640387 0.65902495
-1.7519333 9.016584 0.30623487
1.8902358 9.508865 1.1625594
0.8897595 7.427925 0.24437952
0.8766852 7.9029775 -0.19977172
0.11136228 11.281075 0.72271955
-1.8554996 3.5178473 0.97004616
-2.8471603 -4.582891 0.5240139
0.74928826 3.5187142 0.5057877
0.2838478 2.8934524 0.16889612
-0.8750428 7.548439 0.8340695
0.15943784 12.449526 1.068609
0.9036832 0.036503 0.7267271
1.515107 2.8472345 0.3651509
0.09565468 6.0581417 -0.6004377
0.21647502 7.027191 -3.9939973
-1.1345583 8.172897 0.55570495
-2.119983 -3.5733225 0.8194301
-1.3570415 9.420222 0.013193187
0.50425184 3.7263575 0.77349156
-0.85354835 7.14907 -3.1727984
-1.4122859 3.0148385 1.2671419
0.86472 3.5198464 0.8979281
-1.4442145 -0.77148515 1.2892914
-0.41393924 9.845877 0.41115403
0.25601372 3.1777494 1.4258119
-0.76313233 7.2878547 1.1641105
-0.4684643 6.621374 -2.877319
1.5259342 -0.25055283 0.30855992
1.3593022 -0.49403918 0.0415365
0.77269316 8.907343 0.24036592
-1.5562186 4.4218 0.1703746
1.1366155 3.3947594 0.49628186
1.7161379 7.2004933 -1.2735475
-1.8214391 1.8293008 -0.19371802
-1.5652385 3.2015767 0.055394195
0.26749927 5.827653 1.3109468
-2.0731 -2.784221 0.95151037
1.2633649 2.1390822 -0.4121055
-2.555443 8.507723 1.1740123
1.0378827 1.103481 0.14162241
-0.14638604 6.1788173 -0.26218203
2.2759843 7.3328876 0.19527513
-0.28920934 6.296934 -0.58994323
0.26356068 4.325035 0.13280007
1.7964336 9.31117 0.31829283
-1.653715 6.463063 0.61128664
-0.1058055 5.613695 0.07504861
-1.8979832 3.9678643 0.09889247
-0.9718189 12.967161 0.6595888
-0.7126877 4.2517586 -0.5693635
0.50128365 6.1525655 -0.49917075
-3.0100305 -4.5593038 0.08485889
0.6213157 9.886366 1.2480805
1.0022312 3.1407576 0.7941642
-1.8979224 -2.0976124 1.37819
-1.226524 3.976831 1.1578758
1.749844 9.263087 0.8053994
-2.303938 10.394165 0.6814083
-0.9783138 9.783201 1.625938
-0.2729569 6.4484525 0.09209857
-1.8738383 8.346766 0.43587244
-0.8795076 8.589001 1.5709529
1.0430304 8.598462 1.0296122
0.36873928 7.5294886 -2.747896
0.40916815 7.8971744 0.39046112
0.21808082 2.1783652 0.41388935
-1.5316423 -1.217646 1.320647
-1.0697231 10.244221 0.6967789
0.59870964 9.235579 0.9722439
1.4767452 9.6164665 1.3089447
-2.258819 -0.6301053 1.3354872
2.3228884 -4.6212363 0.24485242
-0.8588999 12.794909 0.00645326
-0.35285854 7.602634 -2.974092
1.7273942 1.1971151 0.4796432
-0.013222095 10.029848 0.7474101
1.1292949 2.9141276 -0.51802015
2.5922933 7.0793705 0.35330367
-0.3382777 3.962455 1.453732
0.08029259 3.9965954 0.76690733
-0.09230931 10.090289 0.37373924
1.1653306 3.9179645 -0.5056353
0.38952282 5.891645 0.64956045
1.7274026 8.523227 0.5532055
1.4281412 9.379551 0.16220538
0.017505571 4.9601636 1.7267308
-0.40133464 12.001796 0.27563795
0.9583242 7.3150406 -2.7937489
-0.83060914 2.0872998 -0.112006776
1.4458193 3.6560023 0.623684
-1.7261695 5.8228297 0.5383744
1.7231995 3.297615 0.73449284
0.3096179 8.768747 -0.18486369
2.3343318 8.534589 0.1382501
-0.10986062 8.822247 -0.19370815
-1.7745401 10.101146 0.3768223
1.5661031 2.4716597 0.20636065
-1.5092946 8.1461115 1.180322
-1.8024926 7.294062 -2.300915
-1.5833749 4.814998 0.33073524
-0.6236345 12.052889 0.5429149
-2.1579473 10.361602 1.048621
0.9779085 6.416699 0.5028641
2.329814 -4.6568203 1.5863918
-1.1590348 8.5963955 0.7235942
0.950934 8.047356 0.20062788
0.46316653 4.1079865 0.8370426
1.723942 2.690907 -0.12909465
0.96345085 2.4320536 0.5774655
-0.39003032 5.5947475 1.4431925
-0.06551453 4.3051825 1.5095111
-1.1742358 8.873027 1.5855263
2.1964438 -0.78359854 1.1588771
1.7332362 -0.42875758 0.041612435
0.72927547 9.043825 1.3087411
-2.2715044 -3.8841279 0.46149248
-0.3536404 3.5631876 -0.4261727
-0.6452355 7.421533 -0.36378056
-1.2619882 7.7211113 -3.6387062
-2.3499746 -4.1666627 1.4725087
-0.3209307 3.8482957 0.2001966
2.0894854 -3.5469818 1.1102926
-2.2611063 -2.010007 1.2001048
-0.042395763 6.969955 -0.47264457
-0.5057579 6.207485 1.428878
0.22612259 13.03608 -0.37531883
1.0661521 7.612524 0.59624267
1.7382116 -0.2579426 1.0388993
0.716344 9.496559 1.2874216
0.54909086 12.9973545 0.604136
-0.6522053 7.626681 -4.1627307
-1.6112111 -0.51880306 1.539116
0.25736132 9.80857 1.5375297
1.865792 2.7003584 0.20911457
0.88565314 9.206185 0.71066564
-0.34770516 8.252471 -3.9645867
-0.96713483 4.2541847 1.3067586
-0.5467707 3.5398805 -0.07286921
1.6235373 4.6683292 0.7311565
0.48620626 8.163563 -2.623858
-0.91201925 4.400336 1.6776062
-1.0401205 1.7247694 -0.12645052
0.52379936 5.1010423 -0.56493664
-1.3391471 2.9938307 0.3898566
-0.28718477 9.432158 1.5249888
1.1178666 4.1302786 -0.10591826
-0.5344647 6.2679725 0.68492293
-2.1977134 1.1395705 0.7062271
-2.285274 7.511008 -0.9914011
-1.5179207 1.4864954 0.5703978
-0.123938166 13.059691 -0.5727071
-1.6205063 6.844114 0.5255533
0.2659129 7.9465075 -2.8087006
-0.7112054 3.9384735 -0.19329146
-0.8876943 2.9794931 0.37359828
-1.3692154 5.9513083 0.21027306
-1.2150421 3.2178607 1.0294344
-1.7887607 5.28138 0.8221058
1.4175081 2.5232062 0.5703704
-0.5990939 7.748747 0.4749328
1.4460597 8.221806 0.68345815
2.574418 7.7809095 0.6719855
-1.883191 0.23005664 0.33807728
0.750855 8.679743 -0.19074318
2.3916864 -3.7248952 1.0162559
-2.0443141 1.7217844 1.1025716
1.0714734 0.5745885 -0.13675007
-0.0038811888 11.706983 0.7009506
0.77913153 4.953166 1.1683803
0.22245902 6.2434254 -0.20716897
-1.5021445 6.5960965 -0.10745369
-1.5109224 4.117577 1.333212
0.7863588 7.7764583 0.40043548
0.7896462 5.8165493 0.6257801
-0.1233396 7.8257146 -3.2875051
-2.3328145 -0.3288899 0.65979266
0.32766968 4.205435 1.6820593
-1.1261861 3.9528644 -0.14988232
0.6166739 7.4522476 -3.0563903
0.16234064 12.861567 0.109287456
0.23236015 11.377658 0.399158
1.4023783 6.7102814 1.0013753
2.0942838 8.264042 0.53482
-1.6519276 6.1088867 0.7700417
1.9703097 -0.656064 1.4311854
-1.0068132 7.1139207 -2.6989787
-1.6919141 6.176216 0.34587312
-0.7897003 5.1846642 0.5304211
0.41648278 7.222509 -3.3923721
1.1557871 4.5666904 0.73202604
-0.35557324 12.5516615 0.9135951
1.5167407 1.0777067 -0.23268892
-0.5186915 8.363875 -2.7065818
0.4701121 3.0105903 -0.14874205
-0.9050713 5.3672686 0.856813
0.49437693 1.7814405 1.0399033
2.172186 7.550658 -0.38943237
1.9955842 10.177797 0.94447833
-1.9195447 2.9248924 -0.08453916
1.2142737 6.4196815 0.015919099
-1.5939032 7.2256975 0.43682408
-2.8148956 7.1413403 0.22106247
-1.4647201 8.558275 1.2692139
1.4391401 -0.5544542 1.3691599
-0.7188746 10.36147 1.1251154
0.8378356 5.8622074 -0.35287708
1.8004433 3.473457 0.2677293
-1.9868922 4.254395 0.6307655
1.6741537 3.774787 -0.02110224
-1.8215215 1.7140253 0.751009
0.67402554 2.435226 0.931088
1.6573443 1.6189001 0.43183225
0.41925004 4.900171 1.7197714
-0.121503964 7.798252 -0.054782137
-0.93586034 1.3660678 0.052119765
0.3589815 3.6387742 -0.62384
0.24295297 11.848531 -0.043186467
1.4616041 7.811612 0.5529006
-0.55890024 13.213656 1.1768733
-1.903696 0.15136732 0.7699661
0.353637 2.134797 0.8425982
0.6338475 6.1872473 0.44191715
-0.48456526 11.760778 -0.49763048
-0.44672704 4.325783 -0.29854843
-1.6128117 2.112437 0.74854195
0.07026753 4.5264463 -0.66960394
-1.624306 2.7122884 1.171637
0.52542055 5.797342 0.26506707
1.2017314 7.768156 0.16095501
0.76141226 7.1346235 0.8694246
-0.24742988 8.675194 1.6113552
0.5918032 7.4669085 -0.29490295
-0.19980375 12.391947 -0.7658081
-2.3123808 -0.7162805 0.50858283
-0.66014004 5.1606946 1.0448854
0.10964699 6.646493 -3.4734273
-0.6964812 6.99716 -3.9490488
0.82804424 1.4120872 0.2410095
0.19197345 6.650221 1.3291329
-2.5197725 7.13229 -0.63788
-2.054925 0.09596044 1.2251077
0.06766844 2.9751031 -0.30417275
-0.60902846 4.208984 1.2598367
0.78090274 1.0101345 1.0885006
2.1019158 -4.3208632 0.92986196
1.9211519 -2.546597 0.91419804
0.22562413 3.1027355 1.0409172
1.1022848 3.3302855 -0.54800904
-0.23502308 8.432535 -0.25376132
-0.9076236 2.3575659 0.76034594
-2.239884 1.5448853 0.64805907
0.36678568 3.4412441 -0.21381128
-0.54997087 11.103094 0.9646156
-2.1171625 -1.9753685 0.8393183
0.81804264 0.42343986 0.164104
0.60898036 8.052059 -3.0267892
-0.76061916 7.0085487 -0.32695395
-1.3931875 7.0490704 -0.16419503
0.9124726 2.3315158 -0.090553775
0.38118738 8.551264 0.9686766
-1.1012176 7.539523 1.1840768
-1.8755008 0.002570888 -0.046665113
-1.2685243 5.4815483 1.4456835
-0.24758674 9.20258 -0.117849156
1.7402986 -0.43790513 0.6898759
-0.45070466 8.92393 0.92877406
-1.4829978 5.723725 1.2567278
1.47023 -0.59079486 0.9208225
2.0831754 -0.34530506 1.2797649
-0.5049531 6.766088 -0.13314387
-2.1449828 8.986305 0.6763505
0.96068287 2.052627 0.42109156
-2.031027 10.081562 0.73116964
-1.245831 6.3111362 0.110222146
0.03396372 12.555288 -0.13916396
-0.08000232 8.362535 0.5067854
0.12723418 3.237126 -0.021610701
1.03944 10.422382 0.829275
2.3148174 7.1169357 -0.48632926
1.2633351 1.6007351 1.2149668
1.2228696 -0.4043706 1.1230179
-1.1472367 6.3965187 -0.24604498
-1.352751 3.885401 0.79008263
1.2796274 -0.75731695 0.62210816
-2.1731234 2.341467 0.3281188
-1.7581961 0.5849627 0.24902585
