-0.2186225 12.829451 0.56498945
-1.2836798 8.141237 -3.0543718
0.46432012 7.8644967 -0.2581036
0.8943283 4.6369433 0.36938253
0.75748646 1.9538232 1.2654661
-1.0016257 0.9209697 0.3169775
2.1342442 0.6743906 0.7111458
2.371891 7.45665 0.59981894
-2.04684 3.1692433 0.19131032
1.0150114 2.7485962 -0.1639363
-1.446341 10.060882 0.6609494
1.640553 -1.7654004 0.9095726
0.4208474 7.671576 1.0166963
-0.84769034 10.909994 1.1876346
-0.33900174 3.1821873 1.0256286
-1.3262752 -0.45245215 0.6523507
1.3517723 6.655827 0.62212
0.41210306 7.2904186 -3.8237
1.667557 9.633652 0.8653857
0.2380413 13.441873 -0.26278552
1.352277 5.2125225 1.1172286
-1.3447154 10.457764 0.89518404
-2.5401096 8.056877 0.7004093
-1.8175187 4.9322133 0.69871736
-0.95109266 6.9465585 1.2767589
0.9192394 7.328676 -2.3382187
-0.1292532 2.9609628 0.16177438
-0.19752432 4.6950684 0.71205896
1.1036322 8.401845 0.5366877
-0.2818517 7.0168643 -3.5198252
-1.7904248 -1.8872313 1.0169426
-0.5765958 12.847521 0.37744316
-1.1332 1.4392749 1.0979636
-0.63820803 7.0155544 -3.0236125
-0.8180931 4.986083 1.4000766
1.1925442 0.41732624 1.2385386
1.9229562 10.057924 0.3205659
2.597875 -3.9297729 0.65934384
1.3695157 3.6639793 0.26844522
-0.9337459 5.8949027 0.08343632
1.2382393 1.403588 0.4364007
1.333449 -0.40187934 0.640128
-0.31072888 5.7756 1.0905447
1.4882053 5.941881 0.63704646
1.8931115 8.886914 0.2910071
-1.5415348 -0.116046496 1.4357063
0.606491 2.1640306 0.5600774
0.32930467 4.7840977 -0.66664636
-0.6325243 6.7045665 0.663493
-1.7752393 0.50342965 1.5252784
1.6517506 -1.3720865 0.78559333
0.68861264 7.3620515 1.2498701
-0.82727313 7.8434496 0.13679264
3.020725 -4.5865397 0.18105455
-1.1118422 9.867286 0.48171502
-1.689159 2.1947234 0.30799305
-0.1514846 10.526839 1.3501711
0.52782947 1.9422975 -0.15124673
-1.412926 5.474066 0.722087
-0.32330889 7.051412 0.39507264
0.4049286 1.4620328 0.38828704
0.6752659 10.531599 0.9191151
-1.3777639 1.7168381 0.8987499
0.8564226 2.0716991 -0.3515916
-0.84281945 6.52696 0.020340268
2.752725 -4.4002514 -0.35343447
0.08743169 3.9593236 1.4541861
-0.3344925 6.9501543 0.7752957
0.031480517 12.1696615 -0.06341997
0.53861517 1.5488814 0.013137159
-0.49001023 6.356437 -0.20616393
-1.6631078 1.2813426 0.18264535
0.5859889 12.931532 0.22855563
0.38654205 4.9952 1.3586391
1.1076996 0.96406996 -0.2569586
0.67111415 10.347811 0.30000556
-0.17854595 13.649308 0.7192579
-1.6837653 2.2928429 1.0799013
-1.4333916 1.8581904 0.49588597
0.7471411 9.373239 0.34929562
-1.2178959 6.240554 0.9855213
-0.27927792 7.2900968 -3.1414378
-2.5243921 7.191119 -1.0572486
0.34960094 5.445149 1.2829686
-1.2211533 0.62083703 0.23649788
-0.5725553 7.2204294 -4.180591
-0.5156599 6.7751775 0.24640995
0.87062114 4.20498 -0.5477384
-0.20732966 7.753938 1.2116339
1.1279864 8.656512 0.004733023
0.8316771 6.294277 -0.23203601
0.9894042 4.508764 1.4939616
-1.3191683 4.2689743 0.7126625
0.7776438 3.1521082 0.48189232
0.049146883 5.7870884 0.5055331
0.014458402 4.2123938 -0.29627165
0.29377756 6.2790346 0.83223766
0.5603527 3.0711112 1.3242704
-1.2374592 3.3318193 1.4496503
-1.3526008 3.5382333 -0.054146364
1.197455 7.812779 0.9122574
-0.062050402 3.6789458 0.44601488
-0.3734307 8.300385 -2.5432522
0.21772096 7.6933846 1.7345327
0.3688505 5.566733 -0.12552269
0.62486815 7.7650537 1.3028435
0.24067792 13.571303 0.14472862
0.40371516 6.8422976 -3.2359097
1.8092611 0.0017019459 1.4214184
-0.4913962 6.150045 1.8410186
-1.2156307 5.502585 1.0524181
-1.7075039 1.4088576 -0.21885358
-1.2060727 9.507707 0.36272773
1.6792513 8.638195 1.0571802
-2.6460338 7.7023916 0.5789257
-0.8422146 11.044714 0.75224406
0.6205239 4.609811 1.3145705
-2.1578627 0.7619454 0.92733955
-0.5274409 5.702946 0.0764103
-1.3270121 5.8569713 0.81803316
2.249824 -1.2590047 1.187371
-0.6244717 2.0847783 0.80985016
-0.21423651 6.862624 1.1905972
-0.81526065 5.223449 0.15806662
-0.083298765 8.156213 -3.4916325
-0.7837129 7.447813 0.3496702
-1.2392929 2.6788235 1.3296375
-1.0830444 7.4572725 -2.5193496
-0.6928393 9.579122 0.9700179
0.07109027 10.350717 1.040604
-1.8314831 4.5873 0.86874455
-0.40163213 7.0410333 -0.4415197
0.012636966 10.4363575 0.5889487
-0.337148 6.8664627 -3.1736257
-1.5633699 3.4151237 -0.34845513
-1.6760707 1.9233522 1.1251311
-2.378303 -0.67878264 0.91127986
-1.0363796 1.0155618 1.1179516
0.15300778 9.304231 0.93638885
-0.4106164 10.921544 0.1964007
0.64252 7.7026954 0.068527885
0.0430994 13.224949 -0.033600125
-2.1517272 3.0366476 0.5340852
-0.07133271 8.355342 -3.7993429
-1.565222 7.718745 0.17840056
-1.3799653 4.9613457 -0.3373821
-0.40072706 12.431181 0.49919298
1.2755755 3.4146812 0.8453609
-2.0349262 2.48756 -0.03341247
-0.9783249 3.9882028 0.5172
1.2006859 5.682631 0.51876867
-1.0749671 9.829543 0.8912373
-1.1511351 8.296456 1.2397933
0.04005123 3.4211686 -0.40017995
-0.8559045 13.3861685 0.59427416
-1.0326259 5.7850637 1.5731257
0.81250936 1.6403908 -0.25135905
-0.049443416 9.127983 1.2694713
-1.1181302 4.716502 1.2231473
-1.7648585 7.5691056 0.6537195
1.1587436 8.251546 0.93747884
-1.254148 6.0643926 1.4300032
-1.0283288 4.7153974 -0.18027137
0.6295536 8.170043 1.319202
0.20474485 13.17848 0.35098943
-0.4447333 5.0060863 0.026597723
-1.1553762 9.8155 1.2622421
-1.3163797 6.539765 0.40837237
0.8058713 9.730242 0.089555316
1.4936106 3.131438 -0.34585705
-1.34263 8.2944355 0.8877022
0.3577983 10.639045 0.43907192
0.5370804 1.1178104 0.22677666
-1.5491039 1.2891587 1.361422
2.3019183 8.397654 1.010204
-0.041470777 9.586331 -0.06309098
1.0441452 7.166638 0.54240113
-0.05476375 7.53775 1.5441837
2.0205052 -0.39747447 0.43590862
2.2569563 -1.4829425 0.8118596
1.400231 2.903336 -0.012842463
-2.5468411 9.628894 0.70162505
-1.3887874 10.04247 0.26582798
-0.8983842 7.331234 1.555719
-0.84818864 3.8438425 1.1940935
-2.2522373 0.41147608 0.3345016
-0.014609345 12.512205 0.7417264
-0.005044679 9.749499 0.38730508
-1.5176767 7.821496 -2.835806
-1.545002 0.39656153 0.96570444
-0.30610788 6.680137 -0.53551334
-0.5812528 2.3881452 -0.091593966
-1.9608829 0.40563756 1.1091024
0.26071015 7.5279007 -0.02330097
-0.7195021 10.073797 0.84950626
-1.7622154 1.0249453 1.2174402
-2.5236375 7.5487404 0.22365893
1.0313433 7.0303125 1.273836
-0.44218677 11.773116 0.710791
0.6633859 5.25841 1.6856709
-0.48148102 2.8635159 0.39458698
0.60628915 7.085346 -3.025092
-0.38009518 2.5054579 0.19750804
1.9530723 1.43698 0.2437619
0.3278725 1.8571217 0.21129562
2.361297 9.027832 0.88902414
-0.14969127 4.890658 -0.67399436
1.70135 2.1102479 0.96613127
-0.11459015 7.3538594 -2.6986396
-2.6730647 7.653866 -0.3646799
-1.372083 7.521614 0.45982388
-0.72826236 12.060666 -0.31177664
-0.96691674 10.614336 0.9333711
-1.3744155 -0.34946802 1.203014
1.9086297 7.2034636 -0.5496551
1.5423487 0.621612 1.1224052
-0.5185159 7.370772 0.64862686
0.9496199 7.1446533 -0.15411004
0.2687007 5.304061 1.650844
0.6007356 8.116096 0.10469468
-0.010255849 4.7455993 1.4292177
-2.1177473 0.7571002 0.14246497
-1.0422574 2.2963803 1.3177186
-2.0220337 -0.68752915 0.9412078
-0.9893357 3.5630622 0.89584875
-0.27417037 8.075286 0.83914274
-0.36429074 8.499193 1.0821763
-1.7021118 10.570668 1.1311015
0.024104916 7.4642324 -3.338717
0.33805585 8.960238 0.9139025
2.1102903 -3.3143654 0.78710175
0.711966 3.8146632 1.1317579
0.47947422 6.3242826 0.063417524
-1.9954166 3.5693867 0.13951996
-2.8109558 7.361171 -0.44789997
-1.8752422 1.3345423 0.4934512
0.951796 8.778366 0.6649071
0.9085933 5.5848517 1.5890417
1.0968494 0.03668292 1.077634
-1.162349 3.1587627 0.043202687
-1.3692036 6.767474 1.1176784
-1.9497904 10.430319 0.5013764
-1.5252068 7.2216325 -3.3371518
0.044465657 9.55526 1.2703301
-0.69594187 12.844602 -0.36033696
-1.5612009 0.90524155 0.20294046
-1.0224223 6.5913653 1.1252786
0.102062374 5.692436 1.6688827
0.907287 7.251312 1.6220586
2.037981 7.2164974 -0.17745283
1.23559 -0.02661046 0.58778733
-0.15904202 11.65466 -0.66102606
-0.12438759 3.631718 -0.11584724
-0.23151198 6.148377 0.39286372
0.26617196 7.240127 0.59998065
1.2014537 5.2686377 0.71282125
-2.0288532 8.553989 0.7305729
-0.47917977 13.161808 -0.41554585
-1.4707078 5.57556 0.34201354
0.8081556 3.0034535 0.044455346
1.4339049 2.725028 1.1000487
-0.5016066 7.627939 0.008613662
0.46404555 13.231544 -0.03374968
-0.16948278 8.302503 1.6089759
-1.5683155 3.4038944 1.2192707
1.2494975 9.76558 0.18281695
1.905599 -0.7737002 0.33481357
-0.871388 6.965509 0.06341952
-0.5609423 11.387513 0.64710295
-1.991767 9.412654 0.5172038
-2.6063282 8.979166 0.784542
0.23358546 7.284216 -0.3966538
1.0182203 7.8392663 1.3157215
-0.336658 7.4356856 0.30761734
-0.66557544 4.7919893 1.0967977
0.99134815 5.248323 0.03456973
-1.1087909 2.6523347 0.5609405
-0.9262414 12.689987 0.3588544
-1.1209147 4.203703 -0.45601428
1.1687772 3.08955 0.23919396
0.3411989 1.8180008 0.60708594
0.84119546 7.620563 0.9662652
-2.2040763 7.144702 -1.1965866
2.265094 -3.9067192 0.38355044
-1.7532706 7.2163396 0.8115056
2.710783 7.394067 0.47313076
-0.822942 1.2925334 0.8781502
-2.4462147 -4.5875196 1.3401673
1.4588717 6.30774 0.82820827
-1.6551256 -0.5486045 0.94931054
-0.4230224 12.600637 0.84564984
0.8439457 2.8573194 1.131954
-2.7039309 7.1112843 -0.2018629
-1.4485414 8.802485 0.87909406
0.7058888 9.829554 0.48883173
-2.1737864 10.151817 0.3742342
0.088425785 9.386385 1.6241299
-0.7761096 8.405891 1.2098092
-2.5109193 -3.8991866 0.7570918
-1.5720958 6.446039 0.98121256
1.5046043 5.505925 0.8255807
0.028898532 10.878654 0.6081765
-0.9315103 3.5341156 -0.108857855
0.5055379 2.5510008 0.6072577
-1.8703259 -1.3760698 1.5271895
-0.360416 13.589129 -0.31912982
2.0144856 10.331512 0.57270235
-1.1116865 5.824129 0.45102564
1.0323946 0.74392915 1.1331654
0.17291702 4.861108 0.6926493
-1.3959308 7.8234825 1.2632769
-2.239439 7.168585 -0.800712
1.3835418 0.89314806 0.08507174
-0.14326707 8.796663 0.4641566
0.2567301 2.4653313 1.082299
-0.97044003 9.100326 1.3064532
0.022265812 3.9855103 0.059118293
-0.74391925 5.3568063 -0.5107183
-1.7660544 9.789762 1.334708
-0.12031067 8.15921 1.2419443
-0.8392406 4.368 -0.17279974
0.20140031 12.837612 0.53991956
2.674879 7.2365685 0.10051763
-2.2347445 0.0030761587 0.12105448
0.8506426 8.066428 1.6422757
0.67591184 2.8160255 0.3239287
0.4796725 5.5170336 0.5661331
-0.5948021 3.2167437 1.295941
0.11248534 8.440791 -3.4834414
-0.65655285 5.8658204 1.3948547
0.6020819 6.528383 0.73563725
-0.2626618 7.8360567 0.2854654
-1.9848555 4.653025 0.47161135
2.2324848 7.956628 0.766343
1.8845129 8.822502 0.7691649
1.2307581 3.779771 1.282544
-0.19282347 11.951517 -0.31213722
-1.7960416 9.893934 0.95792246
-0.15271841 5.555861 0.8016709
1.0653367 1.6293578 0.0836899
-0.36026022 2.894083 0.78619534
-1.1398319 0.5860759 0.9920777
1.4280466 7.05823 0.62809986
-0.9013845 7.2551355 -3.6209686
-0.11570477 7.0153255 -2.8937335
0.6983621 7.859273 -3.2700658
1.8401136 1.3865365 0.8245395
-0.5077145 3.5439973 0.4278723
-0.64382195 9.127314 -0.16881813
0.5685549 7.0910096 1.611318
-0.19633396 12.131625 0.6766497
0.09758071 12.499637 0.3491418
0.74511987 5.6757383 1.2751949
-2.1024117 -1.0397879 1.5218848
-0.35488993 6.5717177 0.94720954
-0.10494193 8.198736 0.11225805
-0.80916744 7.329317 -2.832885
-0.5884053 8.757329 1.7117734
0.17259815 5.9424334 0.12538116
-0.77288103 9.163215 0.9562451
-1.1771426 8.019638 0.19163252
-1.6472566 0.7003862 1.2425393
-1.8577338 4.6539927 0.08668434
0.19222875 8.651273 0.62075675
0.48534063 12.857187 -0.11198029
-1.0353723 6.8939147 -3.7276225
-0.8018795 5.5130644 -0.107263975
-1.9496181 1.3540391 1.2854773
-1.7460963 2.8841112 0.4138129
-2.7008862 8.374222 0.61030495
1.1770527 4.8585024 1.3467025
0.3764272 10.297472 0.72108227
1.7811738 10.489725 0.8291538
-2.9001846 7.5695543 0.34374142
-0.9863736 4.8505855 0.87026685
0.9909909 10.071029 0.27178246
-2.021699 -1.0366336 0.74978465
1.2460446 6.7771735 0.31085274
1.09687 10.788488 0.77758455
0.70519507 8.2113 0.49772227
1.2595112 3.412185 1.2314765
1.5320553 3.1495996 1.0326264
0.02217724 8.3632555 0.9254065
-0.26717946 7.502868 -4.278405
-2.2715683 1.9146093 0.48531422
-2.8083498 -4.545394 -0.71148986
-0.77129805 9.067958 1.6599864
-2.1925 -2.4225538 1.3116189
0.9721181 10.070387 1.4810373
-2.0924416 3.88731 0.43793097
-0.24371338 12.940535 1.272589
0.9499035 0.40112758 0.883901
-1.9843705 -3.9389193 0.8360134
1.4005044 4.726079 -0.186535
-2.6697218 7.4757957 -0.7927817
-2.1729941 1.5916846 0.31234592
-1.548232 3.1745434 0.7320152
0.5817827 4.547732 1.7037357
-0.8938005 3.410125 1.3407756
-2.298666 0.013433703 0.8947964
-0.48203442 8.410982 1.4234136
2.1715627 8.659075 0.5833422
0.9122778 5.0799565 -0.42058173
-1.2980686 6.6254616 0.75327337
-0.1370472 13.769445 0.3410307
1.1107136 4.2232475 0.91007507
0.01738206 5.6311016 -0.63872635
-1.5826516 2.5034804 0.74305564
1.1299803 4.950236 0.9425681
1.4393212 10.228959 0.72992355
-0.7787081 5.579321 0.36423153
1.0638449 8.76444 1.4084065
-1.5725446 8.593498 0.16821513
-0.94011736 8.281377 0.8782962
-0.42587513 2.2230897 0.5207165
-1.1852951 5.5719633 0.040151313
0.377988 2.954098 0.58353627
-0.6082674 6.4075303 0.3595401
1.5848738 8.949685 0.51634955
0.19409376 3.581634 1.4773887
0.5994685 9.975555 0.86645496
-0.1107287 7.3156204 0.6617508
0.08941575 7.929019 0.91785836
-1.9637219 -0.6549796 1.6125628
-1.2099388 0.2661861 0.43065682
0.062932655 11.457075 0.062638834
-1.0056992 3.5736234 0.5641192
1.2003589 7.3897905 -2.033164
-0.13023552 7.734895 -2.6398013
0.24428745 9.9394245 1.1208394
-1.4999738 5.327236 -0.20468247
1.4157809 9.81158 0.5659737
0.47452438 5.9557667 1.024526
0.6711276 5.2925777 1.3247852
-1.0724685 10.237641 1.1295831
1.2213271 -0.8346305 0.26601213
-2.1180527 -4.5795455 0.96250224
-0.3320001 12.993273 0.91892725
-1.0818732 6.78897 -0.25874686
0.07493131 5.1888165 -0.6590741
0.5829737 1.1225166 0.65619755
0.16853365 8.4404545 -0.18662144
-1.5579892 2.1720188 -0.28680313
1.2843376 4.90511 0.55156857
0.2055376 6.561774 0.5321229
0.18450896 9.061979 0.546331
0.48956028 5.9604144 -0.14309143
1.970201 1.891074 0.37488952
-1.5477967 7.09746 -2.9623926
1.7649372 1.0814283 1.1082314
1.0404367 7.686763 -2.1859474
0.13367465 4.1963687 1.1177609
0.43260247 9.193052 0.22452469
0.8717722 -0.7510544 0.5828769
0.5227888 13.332787 0.34309247
2.0612948 -4.015868 1.0208498
-0.70722187 2.4482057 1.1463991
0.553005 7.019609 1.2303153
2.1088805 7.227269 -0.91957164
-0.4658186 2.4640367 0.88100237
-1.0432382 2.8024414 0.98657364
0.9166484 4.8290353 -0.07533775
-0.8682218 8.1876335 1.5755916
1.0491831 9.599087 0.4575638
-0.1445091 7.921851 1.5994416
0.26869553 6.872657 -2.8113759
0.4125312 12.749032 0.91555816
0.0013128984 8.593032 0.1528965
1.0629818 3.78891 0.5434187
1.1987946 5.6921167 0.030276181
-1.8591651 0.52969 0.66336066
-1.0687321 7.2969255 0.5853916
0.4700625 4.4088326 -0.5455557
-0.4780878 10.035719 1.1670877
-1.8653456 2.4760575 0.51905805
0.9040024 2.3005352 1.2898381
1.1320462 0.19249178 0.02278342
2.0283637 7.5596437 -0.75824773
-2.3042567 0.05071057 0.5164276
-2.2047966 2.6330287 0.6051511
1.1887842 1.4826472 0.8429527
-1.1557591 4.075171 1.5716643
0.6187635 3.6157434 0.09171319
-0.5319843 3.878348 -0.56079805
-0.065796 13.664741 -0.07753011
-0.79253477 3.0681658 -0.02616228
1.6626444 -0.8698484 1.4528282
-2.888125 7.450575 -0.046871863
-2.0835235 -1.7525895 1.4171389
-1.6029892 6.173055 -0.06380895
-0.07584092 3.8358035 -0.50246716
1.4602035 8.550361 0.2740746
-1.3019897 4.7288895 0.59257007
2.0069737 -1.2092279 0.6279452
1.0985403 6.631678 1.3140842
-1.6709421 4.039999 0.46111912
-1.5122484 8.95033 1.2755868
1.6722456 9.729124 0.2744269
-0.53868675 8.093838 1.114898
0.35599163 9.231761 1.3041486
-0.74387634 8.361677 -3.7379022
0.57874125 3.47071 1.4755466
-1.1514409 9.75188 0.07080267
2.2437546 -1.9469316 0.7748799
0.3980662 2.521624 0.23431875
-0.47669265 7.49705 -2.559698
-0.10193874 4.7941008 0.02436955
-1.1158416 10.15942 1.5277053
0.052259326 7.6098986 0.31286705
0.5562379 12.599101 0.45862347
0.5782381 7.2366967 0.045225374
1.712935 3.9924376 0.7878986
-0.7565149 8.091425 -3.4505136
1.2319149 2.2697067 0.30675557
-0.84352183 13.159853 0.9458853
-1.427884 10.072488 1.0458034
-0.45164344 7.16434 -2.7399888
-1.4341697 2.3751092 1.324527
-1.0909551 3.1477652 0.65603364
-0.2368151 11.426317 0.8126933
1.2150328 6.2325597 1.1320072
-0.3126932 13.303809 -0.054250136
1.0644817 9.417333 0.04431354
0.8726873 1.6308513 1.1122955
0.9126531 5.0670233 0.3720683
-1.3812989 2.0113938 1.3541989
-0.6310294 3.492678 0.99848324
0.9319746 4.6042576 1.0674036
0.7244952 1.7814219 0.75652707
-1.9197887 3.205596 0.7412815
0.83834344 5.355151 0.6406304
0.97896475 10.709313 1.1628
-2.3407059 7.167532 -0.37652463
-2.2783983 2.2490234 0.7109357
-0.8957217 4.467208 0.9698079
-1.0395414 7.7612443 0.5256391
1.1130053 6.7785916 -0.0569895
-1.6018542 4.5936737 -0.24512762
0.67643714 9.364342 -0.05993993
1.3821995 7.578471 1.1804699
1.5696563 0.7285624 0.40316296
-0.48216087 5.4324894 1.8447249
-1.9681866 -0.5531582 0.57816505
0.05890981 4.596161 0.37343594
0.87022245 8.485333 0.24101272
0.35827985 8.795492 0.26076147
0.18349114 7.034041 1.3660834
-0.20917091 5.989205 0.06778501
-0.3369292 9.532454 0.24396089
1.511714 7.460547 0.8085322
0.4855621 2.7898011 0.9630758
0.30016443 5.1633096 -0.09284629
-0.35726953 8.875495 0.12537573
-1.4640743 2.8059425 0.0039630225
1.0544621 6.491466 0.87368953
-0.99420357 5.613388 0.73867255
-1.2505149 5.990226 -0.18819243
0.20766093 7.270433 1.726935
0.4372253 9.120487 1.6728868
1.3307544 8.01225 1.263288
0.7620484 9.620003 0.8323561
-0.17907594 12.374695 -0.4071623
1.4897634 0.2808543 -0.19966537
-0.99684274 8.488849 -0.19567221
0.39566702 9.632645 0.32451138
-0.6409482 8.012086 -3.0018554
-1.7221644 9.772569 0.5874936
-0.36996922 9.889826 0.8027216
-0.666748 7.8712335 -0.259602
1.0258962 9.036232 -0.037760753
-0.2021874 12.6736765 0.17997216
-0.23772189 4.894766 1.0919747
-0.11793977 7.2637925 1.2913303
-0.4204912 4.596542 -0.6526786
-1.9248257 -4.6011424 1.4043056
-1.5638093 9.737028 0.22071098
0.036767527 13.148095 1.1716722
-0.73777974 2.69015 0.11113337
-1.2525322 4.3521914 -0.08421605
-1.1428304 10.717343 0.5759213
-0.66525584 6.965612 -3.4484365
-1.7481734 3.7742693 -0.21000193
-1.768411 9.089601 0.7057568
1.4233816 9.879153 0.9818091
-0.7508612 7.061377 0.42589876
-1.4383422 2.570825 0.3874193
0.49517745 3.2576551 0.22365786
0.12931716 2.7917686 0.87229025
0.7300821 6.1906176 0.8117263
-0.94222844 4.1357117 0.1425408
-0.9603683 8.949472 0.5957676
-0.8312194 13.155704 -0.09530044
-1.4395674 1.033967 0.56296116
-1.1300703 5.1317706 -0.057383526
1.5924488 4.588312 0.14393051
-1.7308553 0.31865284 -0.12647301
-0.11259111 7.69743 -2.2732196
1.3363491 6.303484 0.40846664
-0.4116507 4.883771 1.4660609
0.42082348 1.4690068 0.77236724
0.033508785 3.425542 1.1412575
-1.0016148 7.66966 -0.22751556
0.4617859 10.27457 1.1400707
-0.061493535 6.780052 -3.8163688
0.22245672 5.4944606 0.2506605
0.7295239 10.935282 0.8772351
1.1179024 2.4842153 -0.45032373
1.9198049 -0.062222302 0.28404385
-1.0186636 0.9711376 0.7219621
-1.6274685 2.9630442 -0.32276505
1.608781 -0.82195306 0.07146433
-2.6340957 8.491657 0.24224153
-0.7956718 12.42404 -0.13116805
-0.94740987 7.977766 1.1993339
0.5211162 7.8997507 1.6437016
-1.0788678 2.821053 -0.2656936
-0.5815033 1.8379292 0.5102078
-2.6744094 7.8123965 0.051415734
-2.198285 0.37893394 0.73914355
0.3088192 6.9107027 -3.6379504
0.19973025 12.109287 0.66199994
0.8299807 9.34034 1.6236022
1.8833206 7.4901657 -1.1450222
-0.45755696 7.6485677 0.941944
0.5219634 5.6640167 1.6392939
-0.823691 13.4901905 0.21365657
0.040367916 7.2070136 0.261217
-0.99477655 3.0227444 1.3844835
0.13375106 2.614058 -0.11230554
1.7251023 1.3887959 -0.06645399
-0.43653154 5.381334 -0.17771636
-1.374883 7.875784 -0.15504853
-1.710692 -1.6640434 1.3199065
-0.9879602 7.2814593 -4.025986
2.1817899 9.2655 0.2345127
-0.27264526 5.9135637 -0.6123827
-0.06355545 7.6371355 -2.998061
0.655417 3.9230142 0.4295383
1.2256212 5.3072567 0.33181584
2.1363447 9.765938 0.96047133
1.976873 -1.8181218 1.0287822
0.19754001 6.8889766 1.7290009
0.50244796 8.73726 1.6398232
1.4265678 2.7321808 -0.38511923
2.2879777 -2.6859536 1.0894774
-1.7888691 1.7190074 0.30491385
-1.3328714 7.740161 -3.1903946
-1.2641872 7.214251 1.4551723
-1.4889778 0.33736694 1.4015214
-0.07126029 12.273588 1.057704
-0.4708026 7.176701 -3.7754805
2.0927382 9.657406 0.2911381
-1.1384407 7.189095 1.0364636
-0.016699001 12.068684 0.3360523
-1.4489962 0.2837482 0.13952444
-0.3121971 7.508472 -3.5427175
2.4761527 7.2211437 -0.27725077
1.165986 1.7715634 -0.33789584
-2.2501814 8.25251 0.49326482
-1.3671716 8.793271 0.4649421
0.1579204 2.4695446 0.6731424
0.6033574 6.054472 1.3571398
-1.0099328 3.7179093 1.5492538
0.2591789 8.334919 1.3464067
-1.0531182 1.8779507 0.7035002
1.9384815 0.6805408 0.37146068
0.9143719 6.8542266 1.6156516
2.5143025 8.642855 0.82744616
-1.3401669 9.248777 1.4094908
0.7605649 10.666546 0.5630662
-1.3782042 7.0822167 0.77436256
-0.76876026 8.707002 0.8928615
-1.7297653 3.2926743 0.39270467
-1.2216662 6.9547653 0.43939942
2.61289 -4.0078983 0.26123717
0.3128694 6.850567 -0.44300944
2.20807 -1.0655243 0.8654637
-2.649513 -4.26089 0.6869834
-0.29206124 8.60502 0.7446115
-0.83343333 3.1517448 0.97731453
-2.0686595 -3.5042217 1.2285997
-1.8174604 8.818844 1.0206256
-0.8433796 2.6748366 1.3686836
2.0606334 -2.994514 1.153458
0.18213294 3.6270275 0.10697296
0.75738275 2.5053844 -0.43326682
1.5608315 1.4179708 1.1388136
0.45760673 9.383027 0.63778436
-0.33609194 4.516196 0.3627436
-1.7048517 4.9167986 1.1053913
-1.3312961 1.0990719 1.2518616
2.6743016 -4.595356 0.058138955
-0.2848701 3.2168207 0.5142701
0.23447192 3.8426175 -0.2652994
0.5575532 7.9258423 -3.6180825
-1.8583112 -0.27703387 1.5943594
0.284884 8.327967 0.28934368
-1.1614875 4.984591 0.3156653
0.4126647 12.430919 0.70288897
-2.6702645 8.785605 0.48977295
0.81536335 1.4119664 0.6915965
1.3236613 0.74030226 0.82862556
0.7574612 10.463504 1.4073765
2.0188544 -0.09508469 0.71443796
-0.46018612 7.485085 -2.2071414
-0.574031 4.1329203 0.45974994
1.9271771 2.2897387 0.32420662
-1.7937313 10.199915 1.2621706
0.22214305 6.164542 0.44043514
0.7141997 5.485149 -0.44220015
0.8439487 4.907732 0.7189136
-0.84563726 12.788769 0.9487645
0.7769612 6.755747 0.9989411
-0.3523428 9.094459 1.6214043
-0.43362164 6.7812567 -2.5841594
-0.98263186 4.3828464 0.6100238
1.4562066 -1.4105719 1.1356487
0.018999014 6.581996 0.95669323
1.2619854 3.763984 -0.06336695
-1.3600838 9.625652 0.7233128
-1.2670614 6.9845767 -3.47278
-0.5755396 12.518976 0.16083643
-1.8405038 0.70622736 -0.1675198
-0.6790215 8.81657 1.2906967
0.12307618 3.58462 0.79037565
0.40473577 8.11818 1.041446
-0.40735355 8.211716 -3.2271943
-0.1942755 7.3307104 -0.443717
0.34739792 3.6261413 0.42456394
-0.83907825 7.3900423 0.0027428768
1.7909766 9.898961 1.1878381
0.4342135 7.4666843 0.32630125
-0.42383927 12.187842 -0.13992089
-1.4212508 2.8466845 0.8149792
-0.79133713 6.906366 -2.5806336
0.6280776 7.135395 -3.4903414
0.74676335 4.703759 -0.5786771
1.8483288 -0.6607707 1.0517867
-1.128547 3.7429512 0.1892851
-1.1338917 5.400198 -0.33221477
-1.2331266 7.348161 -3.0355883
-0.30293748 3.900558 0.67625105
-0.42931232 13.708389 0.10196596
0.60033524 8.998992 0.5850677
-1.9567019 -0.16786154 0.4417122
0.9014305 5.9473877 1.0551894
-0.6568933 6.5831003 -3.2531419
0.79875696 -0.29978696 0.5070134
1.4315056 8.977184 0.16673952
-1.3593857 3.8018231 0.45270014
0.00779349 12.791425 0.8941935
0.028634042 7.026019 -3.2966273
-0.9467051 13.107121 0.27039608
0.37417084 12.158613 0.25905046
-1.2743194 -0.15584761 0.9010198
0.6580486 5.213495 -0.16783817
-2.3106663 -3.802708 1.1084634
0.82945657 3.9844575 0.77440405
1.0525441 5.2186494 1.4453828
1.3809463 9.998786 1.3780433
-1.3692787 2.3552938 0.051687792
-2.011408 1.484176 0.010199184
1.9904437 -1.5249972 1.388816
0.6930898 0.40534547 0.5310147
0.20037943 11.933805 -0.4504529
2.3748178 -3.6040246 0.644073
1.4331255 -0.14139521 -0.10463953
-0.31564248 8.065374 -0.29332238
1.6624974 -0.018752595 0.59961104
-1.1766485 2.0942905 -0.26119608
0.1463177 6.22561 1.2758293
-1.5177723 5.7136316 -0.15642603
-0.9127722 9.450696 -0.057346947
-0.7479713 1.6810151 0.1894387
-0.34912935 8.508006 -3.5927768
0.7633637 1.2377019 -0.13422836
1.5283817 5.0355597 0.11583762
-1.1798942 1.9817916 0.1602923
0.16078761 4.5665593 1.7862012
1.3911555 7.577711 -1.8358173
1.6364434 7.5267963 -1.4662647
1.7442825 7.2316313 -0.9020188
0.21224745 4.1155257 -0.62673247
1.0812218 5.4801383 -0.26945335
-0.7339182 10.804577 0.4738394
1.0943954 3.1507607 -0.19489752
-0.7175441 6.56336 -0.40055138
-0.281617 7.5114365 -3.9303353
-0.5653857 2.0941885 0.1706897
-1.312566 6.191625 0.5709035
1.7059096 0.6739178 -0.04681933
1.1264715 1.9492096 1.2870011
-0.5866065 8.373507 1.7709076
-1.0947802 5.156657 1.6019659
-1.2433699 2.4807773 0.96024406
-1.5706941 7.327552 0.08247573
-1.7093868 4.995452 -0.06359574
0.59737587 2.182145 0.15778624
-1.6755325 8.475703 0.9402668
1.1883056 3.03996 1.1282514
2.3557596 -4.57679 0.4968644
-0.4952508 9.530001 -0.09786401
0.4048342 9.588886 1.0904152
1.8918997 0.33073214 1.2380294
2.1584384 8.730448 1.0668067
-1.673337 6.5269785 0.22245231
-0.20742406 11.609034 0.39564568
-0.34825304 6.599472 -3.5647893
-2.7825599 8.027325 0.39840066
-0.81928 1.7094398 0.92838806
-0.12246516 6.595446 -0.2142977
-0.8956957 4.7790375 0.5150711
-0.080370516 13.395835 -0.40998605
-1.6400292 -0.20734507 0.7118025
0.09685469 6.668268 -3.0902777
-0.8535453 9.517997 1.3200891
-0.874836 2.0664415 0.42406717
-1.2015396 0.97925776 -0.00788812
-0.6110208 7.3481674 -3.3388503
-1.3909091 0.829488 0.89950013
2.4876828 8.090466 0.3439769
1.5508461 -0.6601562 0.4129917
0.78436136 6.003746 1.65786
-0.253068 11.507448 -0.21952316
-0.5642851 5.928869 -0.22761221
-1.8539453 7.9359875 0.54505265
-0.82931745 4.821984 0.102975614
-1.5300118 6.064853 1.1589936
1.3973558 7.142844 1.0838039
-2.2722178 1.4187424 1.0330024
-0.41812444 6.811787 -3.946811
-0.5479871 13.243548 0.2792447
0.5357389 7.2470922 -2.6625936
1.0667256 -0.50669366 0.32895902
1.2136092 5.544267 1.2553253
0.7259412 3.2821758 -0.18615271
-1.4888624 8.371939 0.5359103
-2.4899855 8.155683 0.11925839
0.11546792 3.2727683 0.40798846
-1.5104973 9.232058 0.9822213
1.2699573 9.08962 0.6898913
0.5152672 6.531541 -0.38965917
1.1864971 10.389594 1.3314263
-1.2919768 -0.10335243 0.44925663
-2.321446 -4.5949764 0.4763708
-1.0174223 6.524401 1.531014
1.322861 2.4456022 -0.0673508
-0.6076328 4.735316 -0.30378067
1.3830771 0.6685493 -0.27124846
0.32708058 11.017026 0.97362393
1.4757227 1.5557122 -0.28850996
1.4330457 -1.0849348 0.9061752
2.294128 -4.2739663 0.29147425
1.7394925 0.0030415007 -0.021188859
0.6013218 4.538414 0.06725435
0.055951882 7.7790556 -4.1357102
-0.51022303 8.071255 0.08180229
0.19777498 8.115336 1.7099743
-0.48059097 3.860078 1.0599817
-0.9728951 2.354862 0.18645287
1.7033206 0.90490556 0.7586539
0.55168957 7.480928 1.6334997
1.665551 4.812522 0.42179972
1.3140004 2.2663214 1.1235044
-0.13472894 7.3950973 -0.06846695
-0.87664926 7.570433 -3.1511064
-2.687934 -4.188295 0.30433357
1.6889584 2.8700225 0.7962608
-2.0330765 -4.2539124 1.5806732
0.114815906 7.3924093 -4.123321
-1.293296 -0.6705477 0.9336031
-0.87283885 3.3694198 0.27112114
-1.6264848 -0.40565094 0.3551122
0.6626286 6.696982 1.333454
-1.9128207 5.053385 0.30706847
-0.47464037 7.905532 -2.6487749
0.81129533 2.460309 0.27468497
-1.275065 4.3446145 1.0845912
-0.27590826 5.042158 -0.32698247
-0.7187626 12.057888 0.09185103
1.519925 3.2739472 0.33589455
-1.3644099 7.4821677 -0.1770628
-0.83489007 1.2530197 0.4217701
-1.134896 5.390151 0.3860966
-0.9958248 6.8640447 0.80111617
2.611924 7.6265717 0.2447372
-0.3187641 5.367137 -0.61027145
0.025954042 9.444333 0.5935345
-0.4650279 7.085357 -2.3453019
-0.39661536 12.777006 -0.58176696
-1.4290509 1.607281 0.1357837
-1.1158946 2.704499 0.1154183
-0.5952249 5.69669 -0.54174346
-1.7616496 7.5364647 -2.5925307
2.012676 -2.4748938 1.2602049
-1.6386493 4.4916754 1.2177858
-2.072651 1.9520117 0.11854621
-0.65397066 12.476285 -0.49563926
-0.6486917 5.801217 1.7824875
-0.77261275 9.573605 0.30899683
-0.6275635 5.7256713 0.7286658
-0.04933902 6.7689724 0.2221607
-1.1434505 9.428793 1.0729468
-1.7188944 2.5611582 -0.26724026
1.9312831 -2.1330693 0.7788009
1.7690109 -2.177051 1.0961158
-1.0813795 7.856852 -2.5412235
0.78723323 3.9659119 -0.21636042
-0.96441346 6.234056 0.36294752
0.5975328 7.0536294 -0.31956023
-0.72222877 9.837404 0.026570765
-0.55781853 9.838148 1.5545671
0.45527065 3.964262 0.08458495
-0.9041656 6.184849 -0.25547257
0.93115926 5.2971716 1.0357996
0.76292837 10.234971 0.6284375
0.8502454 6.9350142 0.20184067
0.7618635 0.06162324 0.3863562
0.2516284 8.10776 -3.8292475
0.9810726 3.5845802 -0.22593041
-1.0071135 8.09649 -0.18825382
0.46557456 2.3443863 -0.24715018
-0.6506203 11.198209 0.36415952
-1.5711753 5.350931 1.1601503
-0.63429874 8.32156 -0.22552805
0.3818196 9.610955 -0.037558064
-2.3247316 -0.33326432 0.26933616
-0.13215359 4.377332 0.019995645
0.21123242 8.38958 -3.064981
1.4095268 -0.11206438 0.9102779
1.7927557 0.35379043 0.16508396
-0.09284481 3.8058083 1.1084422
2.0682886 0.9858727 0.8880571
2.087392 1.1003526 0.51441973
1.4455215 10.115373 0.31585002
-0.3431844 5.7121096 0.41636094
-0.52791893 8.737491 -0.23073372
-0.68509567 3.7674816 0.6971843
-0.56000805 3.1685524 -0.39615563
-1.3858666 6.434347 1.3607212
2.3575773 7.7642956 0.04292518
-0.8436936 12.531629 0.68048143
-0.6298682 13.478201 0.8781122
-0.26006645 4.2015796 -0.59673935
0.39633512 2.7329242 -0.38902557
1.0751361 2.4896896 0.92039675
1.2697937 5.0929713 -0.2127957
3.0576713 -4.580757 -0.18631034
-0.6229465 3.6579528 1.4588802
-1.2231005 3.6103544 1.1530738
1.1378484 4.1542053 1.3399655
-0.7361911 9.725273 0.6410685
0.32969174 6.9318333 0.28323978
0.5868945 8.596832 0.5544422
-1.3782102 3.7548358 1.468251
-0.82958734 2.0757368 1.104485
0.3918598 7.2722096 0.9591985
1.0227854 9.388848 1.1365434
0.6274545 5.586464 0.9354226
-0.9740969 2.4249372 -0.2112672
-0.6653063 9.455965 1.6527514
1.4490153 4.7831073 1.0378879
0.12924585 6.493095 -0.54010296
1.5679374 9.226753 1.2475239
0.9323072 3.5709019 1.3747735
-0.8155568 7.255848 -2.3851092
-2.2431934 -0.68896973 0.17536215
-2.2665734 -1.4005665 1.3266524
-0.32625154 6.4956436 1.7542197
0.81514496 6.7042046 -0.23994787
1.7701721 3.077596 0.013193353
-1.9421258 3.8570437 0.80305225
1.0082767 8.285133 1.3337796
-1.4080527 10.404768 1.3499911
-2.0725079 -3.0775263 1.259886
2.2765818 -1.7182915 1.1535604
-2.9846973 -4.5831995 -0.3461124
0.7422987 4.210837 1.5757515
-1.9115009 2.82944 0.8288394
1.9513443 2.2181945 0.7116436
-0.061770137 9.663329 0.905845
0.459198 6.4027596 1.1430699
0.8321002 8.498476 1.6407827
-1.9658936 4.2945085 0.2661406
-1.085963 8.695184 1.1977321
0.54526466 3.9680934 -0.59159654
1.4738312 4.3509645 -0.13372773
-0.9196435 6.0460668 0.76876485
0.6041956 9.021055 -0.13600054
-0.5170648 3.173774 0.17116602
1.7184078 0.52540725 0.76981807
1.3143349 1.863716 0.42139095
-0.08640141 8.107062 -4.062904
-0.60856736 4.5435357 0.65363353
0.34145382 10.044687 0.45517582
1.6333554 4.160529 0.11070033
0.97436726 7.529254 -0.12867051
1.1381224 1.3489889 -0.3212934
0.21727541 11.761504 0.3466089
-0.05315498 8.401986 -2.7846816
-1.7273593 10.285268 0.84614795
0.5386761 10.013721 0.118517235
2.201354 9.374368 0.97709113
2.038472 0.0013894334 1.1089604
1.2758129 1.3248818 -0.0014759426
2.5246844 8.58679 0.45054474
-1.7509936 8.1392765 0.8096026
-0.17832755 11.212798 0.41109195
-0.13411215 9.824431 1.5148424
-1.2454264 8.039537 1.5458858
-0.16231929 5.942172 1.3899674
-2.3586159 9.558205 0.3551305
1.0748678 2.8441718 0.48976746
1.2940214 4.0844145 0.22701718
1.0183692 1.2720045 1.0996715
0.2791989 7.7689886 -3.140351
0.19210705 4.839952 1.0756209
-0.2603302 3.1878808 -0.19452828
0.39527625 8.198149 -3.4135213
-0.20650828 3.4146423 0.17531914
-0.1417034 13.422855 0.32425374
-1.2548027 4.5829844 -0.46329498
1.9956342 -1.0696414 1.4178884
-0.8086781 9.921893 1.2286566
-0.060534213 8.102651 -2.4501362
-1.9788795 -4.232863 1.1362522
-0.69065344 6.5071545 1.7734052
-1.8655598 -0.83679414 1.241153
1.3912902 3.5675159 -0.38144037
-1.6901026 -1.459637 0.9689424
2.1958373 -2.8945377 0.8053401
-2.3565793 9.205722 1.1705002
0.87672275 1.9322572 0.050542798
0.055449042 7.064977 0.97394764
1.5875025 5.071494 0.7786133
-2.5309985 9.224313 0.4371892
-0.50194705 4.190897 0.08401304
2.6005087 -4.201056 0.9323769
0.9892631 4.2288237 0.46850553
0.018677901 7.5091066 1.0064255
-1.7322435 3.1003165 1.1104085
1.8887713 2.6084945 0.5827157
1.4528002 4.028869 1.0880951
0.7890553 4.227448 1.1334789
-0.023029486 4.529676 1.0500747
-0.4176635 7.925477 -2.2806485
0.9930129 7.6771812 -2.5543642
0.74356633 4.4443426 0.7377901
-2.3300993 -0.33500558 1.0938451
-2.2478328 0.749497 0.5265595
-0.10832044 5.3756967 0.43474442
-0.494987 6.8523846 1.8250787
2.2287414 7.782882 0.4102637
2.5718782 -4.590658 -0.663198
-0.7408409 5.0988 -0.2200503
-0.3709263 9.51836 0.6583835
-1.8582098 -0.739346 0.26690584
-0.23623554 4.6088743 1.7994375
-2.751274 8.606588 0.90837824
1.372071 0.48773238 0.15626612
-2.6335816 -4.6002417 0.1426346
-2.5066407 -4.2011023 1.0817076
-0.022848537 7.207481 -3.6953084
-1.6328908 3.6278863 0.18615401
-0.92863536 7.7830057 1.5503678
-0.7093686 12.44078 1.0893157
-1.4745739 3.9832153 0.044697087
1.5107034 1.2448719 0.22850576
0.20442383 7.130102 -2.5326283
-2.6180842 9.304604 0.89118826
-0.019416818 3.183147 0.7889329
-2.5002217 7.1813674 0.072687425
0.005566573 13.182669 0.6951608
-0.48277953 10.529114 0.24370413
1.8262286 1.7953639 0.016971841
1.1226331 6.040548 -0.067376435
-1.3712673 4.7760034 0.020630915
-1.5268378 7.454148 1.1653323
-1.5898125 9.389237 0.5176256
0.5860645 5.340789 0.2175128
-1.0237389 8.329594 -3.4185266
0.67284274 8.575363 1.2784805
0.69084674 3.35153 -0.57026064
-0.88120246 8.547911 0.49654195
0.34401205 13.074896 0.9686387
1.3457836 7.4244294 0.4173088
-0.30074662 5.3247623 1.0979
0.28213 7.4407315 1.3362606
-0.16653661 4.9632134 0.39113018
-1.406561 5.0878067 1.3838041
-1.0098094 5.8307996 1.1326703
0.83147097 0.7462792 0.73325473
1.9828658 8.377653 0.8647789
0.224544 4.542016 -0.24707949
0.87794006 3.2531838 1.2348516
1.5774378 2.050702 0.17475027
-1.0990387 5.1311436 1.1587732
0.2058672 12.300138 -0.5596908
0.042531874 8.005447 0.497744
1.8579773 3.0370932 0.45239425
-1.2556453 2.106496 0.96515536
0.34141797 3.163644 -0.51671326
-0.025501681 5.5552115 1.2854036
-0.19773805 11.810995 0.06045792
2.3716702 7.467866 -0.6211566
1.1112069 5.8936424 1.3895798
0.25332913 2.8040583 1.2940266
-0.56149435 8.872523 0.52951205
-0.33936325 10.216042 1.4582229
-1.3063012 9.169921 0.66686034
-0.9309218 7.7077684 -3.5712647
-0.014485022 8.591752 1.3017439
-1.2966312 10.765097 1.1970352
-1.1567485 5.158714 0.69970053
1.1003759 9.00346 1.0455049
-0.7114587 10.443775 0.66353726
-0.53071386 4.886472 0.38323057
1.1365317 2.658768 0.1939027
-1.6755933 4.176371 0.92021203
-0.18424773 6.4702682 1.3573296
-0.8748749 8.38692 -3.0568047
-1.590609 -0.72991645 0.5913739
1.5442239 5.617289 0.3789922
0.27111474 7.855721 -2.4382796
1.4917779 0.22015032 1.3143144
1.0751463 2.6211748 1.2545038
0.1838241 8.561333 1.6977302
2.1831698 8.130543 0.18308066
-1.7741863 4.2340117 -0.109260686
-1.460086 4.756812 1.3907748
-1.6825641 5.6888657 0.93871725
0.41472152 7.581477 -3.444154
1.8019909 3.6358397 0.6511734
0.7932026 2.7942524 0.7310385
-0.8276306 8.350191 0.12877755
-0.1646072 8.540895 -3.204544
0.6392806 3.1530604 0.8916628
0.40429634 3.326832 0.6812806
-2.0974016 2.741624 0.25435606
-1.7263807 8.715305 0.5757205
-0.07194927 6.271679 0.7183866
1.4770176 1.2421571 0.75751966
2.3383756 9.466839 0.6281816
-2.0411391 8.742874 0.31901392
2.130515 -0.7563102 0.6789686
-0.48649308 12.952807 -0.026363358
0.35009378 12.60789 -0.35591313
-0.45082736 4.511722 1.00015
1.1888703 9.200759 1.441396
-0.91328084 6.208798 1.2617505
0.21021898 7.0817275 -0.080606736
-2.1701324 7.442516 -1.767665
-0.3967091 12.105031 0.9843764
-0.20492159 7.176218 1.6498756
1.1906146 7.1903753 0.1671891
-0.3739995 7.258418 1.02446
2.0048494 -2.0049808 1.3373537
-0.4058622 9.6558275 1.2114629
1.3567296 4.063097 0.6185027
-0.9855268 4.026365 0.8798606
1.1019402 9.179717 0.36417603
-0.14561123 12.028975 -0.6773497
1.7149248 3.8962173 0.3670427
-2.299938 8.49164 0.17538965
-0.7469457 4.5780034 1.3864069
-0.34402487 2.80713 -0.07255326
-1.8353422 5.428052 0.4716276
0.47685802 4.6821513 0.4715032
0.05557598 8.999684 0.13870858
0.41826972 12.515772 0.06308513
-0.65137243 6.1434474 -0.51333237
-0.9469742 6.436785 0.72710866
1.3859773 10.584145 1.0442892
0.23071654 7.963804 0.0646642
-0.13466184 5.3707767 1.7138393
0.33548608 8.240553 0.67881495
0.46449 3.856444 1.58636
-0.8870829 10.460958 0.3003716
-2.3874512 7.492652 -0.6183766
-0.69971734 6.679352 -3.6724758
2.1260355 -4.2605696 1.4163843
-1.7360276 5.804428 0.13006267
0.081461854 12.658253 1.2986046
-1.5659993 1.9761909 0.06593429
1.2160383 4.856347 0.1784469
-2.6576025 7.3029795 0.4430968
2.435212 9.009515 0.5196081
-1.1593678 3.498715 -0.41526863
0.03434029 6.8950014 0.6188896
-1.3187293 0.66873014 1.3204423
1.19182 0.5821692 0.5787623
-0.15759659 11.131556 -0.010188566
-0.6576555 3.2263088 0.644714
0.8657463 6.486284 0.14056258
0.052888922 5.9383883 0.9536515
0.5965082 1.3459477 1.0738528
-0.74874425 7.1401777 0.816383
0.30736414 10.509419 1.3872836
1.4174229 5.9714813 0.18838964
-1.5627731 8.136116 0.19829835
-0.60611767 9.244587 0.60303056
-2.184308 -0.18769608 1.425665
2.5545595 7.542787 -0.1957376
0.45485875 4.2051573 -0.21745515
1.4973259 1.7131797 0.7688183
1.8141078 -1.0375521 1.0489873
-0.4433183 8.506723 -2.9360065
2.2227628 -2.4021215 0.78964686
0.18963155 13.606499 0.543095
1.762114 9.986691 0.69605964
-0.12708782 6.66226 -2.7893255
-0.0810497 5.202741 0.04497949
-1.9571321 -0.38710493 0.07710244
-0.18214917 4.6237893 -0.32958367
1.1454985 10.422949 0.4431741
0.09998739 7.564902 -3.7369716
-1.3419708 7.5080466 0.8240338
-0.5698372 10.186161 0.10642495
-0.23731066 9.180647 0.380203
-0.393567 8.12556 0.4802758
-0.25727737 6.534983 -3.172119
2.3260682 -3.251991 0.99796027
-0.93197626 6.6750197 0.3929519
-0.9600725 3.8479235 -0.49503282
1.2235931 10.158168 1.054446
1.4204093 8.85329 1.2842804
0.11958727 13.480093 0.9234975
-1.1383345 7.7189255 -2.8697052
0.5290742 8.527194 0.08473799
1.1734686 8.785441 0.38879278
0.89516515 5.5918937 0.30220038
0.8912428 6.790973 0.5665848
1.0945683 0.2751971 0.43253934
-0.3036678 9.331566 1.0276989
-1.8849802 2.1786463 -0.14162363
-2.1409972 9.718652 0.75681937
-2.0399935 -1.5431561 0.7896773
2.0712829 9.132694 0.6072423
-0.25447464 6.2099547 1.0807368
-0.5922121 6.130458 0.101239294
1.7086523 0.14900956 0.9390993
-0.68524754 1.5296434 0.6047016
0.11958451 7.6673846 -0.36540633
-1.701945 7.18015 -2.6666784
0.12462732 4.9377675 -0.33668345
-2.1030166 3.4827385 0.5101065
1.4258163 -0.17121422 1.3075238
0.750921 8.378944 0.8737184
-1.7777197 5.407978 0.060977913
-0.25936067 8.060027 -2.8988163
-0.5982854 6.6291213 1.3969681
1.4946109 1.8791176 1.0975789
-2.0185876 2.4702334 0.90607464
-2.1699214 1.0827323 1.1869391
-2.0551524 2.0899923 0.98382974
-1.2666781 7.595243 1.5242512
1.1328667 1.8601198 0.8801236
-1.6938386 -0.98246235 1.5668921
1.0271916 9.802889 1.1320404
-1.079897 1.6401978 0.37205765
-2.5710013 -4.5875306 0.89426994
-0.62003183 6.019774 1.0351763
-0.2723887 2.5665295 0.5675685
-0.33501288 4.5224767 1.3579813
-0.73911 8.784114 0.15531309
2.0240822 -4.6137977 1.2630839
-1.458467 1.2496021 0.9122479
1.1050769 -0.15622279 0.2043201
-0.5827129 7.7595615 -3.3666668
1.6468184 -1.2857393 1.4141896
2.2621765 -2.182617 1.1123157
-1.7145947 3.642924 0.58970815
1.4401883 10.636986 0.6645057
-0.96693397 7.9478474 -3.1745758
-0.559535 9.231562 1.2995368
-2.1366482 7.161761 -1.5663878
0.10029052 5.212835 1.0351727
-0.54369926 4.9419518 0.7650494
1.0731385 8.015853 0.59167945
-2.0200257 9.773649 0.295058
-2.643223 -4.3389435 -0.15806055
-0.9235149 6.7567883 -2.926947
2.0782247 -3.7746549 0.7314008
-0.91908646 3.1901934 -0.35784963
-1.683354 1.5572224 1.1195863
-0.17988847 13.049843 0.2759368
-1.6272091 -1.0255606 0.9587356
-0.10839849 6.1607485 1.6565311
-2.2402344 8.79772 1.0258459
1.5407565 8.966256 0.9431154
1.1707417 9.58579 0.81271136
-1.9415646 1.0842891 -0.040573586
0.18745047 5.2835665 0.65348625
-0.49692667 5.24337 1.4612634
-1.0021943 10.115171 0.15268554
1.684305 3.423967 -0.13051784
0.8180506 4.8909945 1.5848224
-1.5327336 7.091768 1.1531131
-2.4818628 7.4494877 -0.169215
1.9046905 -1.4084414 1.0466133
-0.32560268 10.63171 0.5605841
-0.7381413 3.5174673 -0.5020764
-0.10648754 11.0786295 0.97011137
0.22633862 5.592988 0.91119885
0.535322 10.147666 1.5316954
0.8435764 8.023009 0.9961712
-0.13837227 12.915932 -0.21002156
-0.1191232 4.1698074 0.38224098
1.0378665 0.7211169 0.27618772
-0.50162965 4.313384 1.6468413
1.5932103 5.2521887 0.45709234
0.8078735 4.442455 -0.25017646
-0.25864816 12.283729 0.16086638
-0.58511597 8.348182 0.77062064
-2.3358357 8.378363 0.88715476
0.23146605 10.345041 0.21699215
-0.81535226 12.301274 0.35540977
0.15856066 11.033798 0.25341678
1.6712685 -1.7269409 1.2852625
-1.1036544 8.794738 0.1900651
-1.1751472 7.215721 0.17047694
-1.1782353 7.88814 0.8977055
-0.2542363 13.391519 1.0737666
-0.5636847 7.990947 1.7916589
-0.4525482 11.387635 0.106700405
0.067393124 6.3717203 0.17460275
-0.4875916 5.36069 0.68436515
0.098391 10.183444 1.4531391
0.29991448 10.651745 0.8813811
0.9472764 3.8321586 0.16979331
0.15418804 6.46107 1.702554
-0.17181122 10.324115 0.13956052
0.54238456 7.8449583 -2.7626352
-0.23991756 6.5791693 0.52897215
1.3859905 3.1092224 0.6471366
-0.4851736 8.50203 0.4007975
-1.6927116 6.816523 0.90828896
-1.062954 1.8346623 1.2497407
-0.013682676 2.863593 0.51797855
-0.055568323 10.715593 0.22174309
-1.9468453 -1.2631731 1.1489716
-0.19874457 7.093549 -4.126396
-0.2889583 5.7965016 1.7715858
-0.6232373 4.171775 0.8431487
0.5834878 3.694097 -0.2884647
0.80871946 7.4250336 -3.2320688
-1.9352326 10.621326 0.8075513
0.2661999 4.760076 0.072065696
-1.8641757 -0.37366548 1.2358824
1.6286101 10.268993 1.1534231
0.6855043 7.5117054 -3.6232042
0.84753716 10.201293 1.0927219
-0.35594493 10.86434 1.2210302
1.9929825 8.504259 0.20591691
0.6113096 4.9396696 0.15926477
1.3308488 4.4719954 0.41137195
0.7824471 4.2163305 0.13126777
0.24184589 7.638141 0.66608876
-1.7560335 9.020846 0.30373356
1.8960129 9.492325 1.1676255
0.8969814 7.4309235 0.2531223
0.88792 7.9068913 -0.19340141
0.11756687 11.2816725 0.72259057
-1.8580465 3.5041065 0.9644846
-2.8542726 -4.580029 0.5059128
0.7443001 3.534514 0.5053356
0.2677245 2.8946443 0.18941966
-0.87454456 7.5486493 0.8341583
0.2830212 12.435163 1.1078044
0.8889975 0.058667935 0.7492608
1.5161469 2.8456395 0.37119353
0.0996853 6.0700755 -0.5903723
0.15430728 7.0391674 -3.9780939
-1.132111 8.182963 0.561674
-2.1275795 -3.5864067 0.8114912
-1.3654336 9.410682 0.00999458
0.49455982 3.736875 0.780023
-0.95133996 7.1341043 -3.204218
-1.4154764 2.9860983 1.2682911
0.8595014 3.5233095 0.89680946
-1.4454168 -0.80739224 1.2695466
-0.42142642 9.8677635 0.37895453
0.2503148 3.2107809 1.4318213
-0.75953513 7.2963967 1.167745
-0.5531932 6.615084 -2.8751917
1.5296717 -0.27290818 0.32478997
1.3613464 -0.4984184 0.042464398
0.7768126 8.903026 0.2398806
-1.5601747 4.400669 0.17517819
1.1325566 3.397795 0.49861267
1.6565673 7.2370634 -1.2613525
-1.8224729 1.7956696 -0.19018514
-1.5718374 3.1744583 0.059206605
0.2680434 5.826075 1.3173319
-2.0918026 -2.8123827 0.9536931
1.244722 2.1404321 -0.40666
-2.5223231 8.500481 1.1680897
1.0425488 1.1169026 0.13460717
-0.15872741 6.1596146 -0.24585298
2.2476163 7.3802967 0.17097802
-0.27187243 6.314096 -0.5779745
0.2532857 4.3294635 0.14041956
1.8006294 9.297066 0.31642783
-1.6630552 6.457897 0.6129693
-0.10598792 5.6069527 0.07615801
-1.9063388 3.940219 0.105957285
-0.9779388 12.963563 0.62288314
-0.71825445 4.2266665 -0.5680874
0.50377667 6.171 -0.49041396
-3.012444 -4.5593214 0.08033695
0.6333068 9.885307 1.2509441
1.004441 3.1433218 0.80420315
-1.8935872 -2.1234925 1.3632971
-1.2350168 3.9753015 1.1553818
1.7628684 9.250476 0.80172616
-2.2969787 10.395838 0.6859456
-0.9622458 9.794319 1.627736
-0.30213958 6.447095 0.10203778
-1.8733737 8.349931 0.43329844
-0.88742083 8.618022 1.5825075
1.0620191 8.607027 1.0343592
0.26173356 7.5653157 -2.7482643
0.40589234 7.89646 0.39647397
0.21695085 2.184834 0.42248237
-1.5352187 -1.2499188 1.3002366
-1.0634922 10.240236 0.7002948
0.6209538 9.239303 0.979276
1.4803324 9.606383 1.3066945
-2.2465425 -0.631287 1.359879
2.3436327 -4.5896554 0.077108644
-0.8561303 12.787031 0.018676287
-0.46742347 7.597319 -2.9774222
1.7339734 1.1635027 0.48490712
0.015289359 10.045122 0.7565369
1.1147368 2.9271533 -0.51638556
2.5059419 7.098673 0.40583313
-0.3394467 3.9579067 1.4595236
0.0717773 3.9901364 0.7779179
-0.07754879 10.092211 0.38186836
1.1560023 3.9056277 -0.5045724
0.3901035 5.900668 0.6602115
1.7309073 8.507373 0.54967076
1.4306511 9.369666 0.1639354
0.026516857 4.961057 1.7391456
-0.4446892 11.9972315 0.36317232
0.8534566 7.3553543 -2.768382
-0.8358869 2.042371 -0.092481345
1.4487774 3.6524234 0.62576354
-1.7262716 5.805544 0.54882574
1.7354009 3.3007374 0.7248805
0.3181459 8.776838 -0.181478
2.327311 8.529338 0.14679034
-0.09743788 8.827038 -0.18753941
-1.7583935 10.124385 0.36621523
1.5694156 2.464845 0.23000504
-1.5004789 8.150184 1.171854
-1.8832041 7.2406354 -2.36808
-1.5865551 4.799811 0.3481666
-0.6417903 12.150054 0.69382274
-2.1413765 10.356086 1.0452595
0.9735487 6.415701 0.49130827
2.2693896 -4.612339 1.5456107
-1.1632922 8.606791 0.7501971
0.9543126 8.027478 0.20701323
0.46143192 4.116782 0.8399107
1.7147415 2.6921256 -0.13714245
0.96265256 2.436815 0.59360623
-0.41457784 5.5852985 1.4477646
-0.060590535 4.308308 1.5210952
-1.1745387 8.893978 1.5860772
2.2057896 -0.8035117 1.1440363
1.739502 -0.4294613 0.04760673
0.7342851 9.0451765 1.3092153
-2.2747862 -3.8941658 0.45414323
-0.3631895 3.5412931 -0.41652536
-0.6329585 7.419828 -0.34812215
-1.3181583 7.6742234 -3.738449
-2.3592184 -4.1646085 1.4617156
-0.33675304 3.8386106 0.2052376
2.1191854 -3.5275695 1.1293787
-2.2608216 -2.0383177 1.2001642
-0.02659264 6.957931 -0.45722774
-0.5034771 6.217855 1.4369878
0.23242144 13.024001 -0.38451385
1.0664055 7.6088448 0.5982803
1.7334642 -0.27426678 1.0387607
0.71714056 9.50075 1.2936999
0.558132 12.9900675 0.6196076
-0.6965378 7.6029563 -4.1984825
-1.5883698 -0.5500274 1.518924
0.27794835 9.818104 1.5452014
1.8629768 2.6951542 0.2027256
0.90457094 9.23089 0.72637475
-0.44133294 8.254125 -3.974253
-0.9766498 4.2529626 1.2979708
-0.5559983 3.5218096 -0.06755049
1.633531 4.6695833 0.7247853
0.3519433 8.216016 -2.6161733
-0.9134684 4.3910437 1.6813436
-1.0460912 1.6837211 -0.11532102
0.51815856 5.0941787 -0.556503
-1.3436995 2.9704242 0.38913628
-0.28125936 9.454548 1.5284429
1.1186203 4.109177 -0.107883856
-0.52928853 6.265627 0.70620143
-2.1956213 1.1157477 0.7165753
-2.379414 7.486347 -1.0526452
-1.5248117 1.4629214 0.568789
-0.12265744 13.050745 -0.57731235
-1.6183977 6.84145 0.52680933
0.1331406 7.980019 -2.8090422
-0.7196732 3.9269776 -0.18747786
-0.892288 2.9650083 0.36934146
-1.3693657 5.9425187 0.22469147
-1.2219182 3.2103467 1.0303247
-1.7858021 5.2980685 0.8305189
1.4106238 2.5284786 0.58419824
-0.5931977 7.7568126 0.49057892
1.4478185 8.206898 0.6935522
2.5807438 7.802784 0.6282766
-1.8918468 0.2057194 0.3437001
0.756127 8.676266 -0.18542935
2.4037607 -3.7877274 1.0029
-2.0506644 1.7055094 1.110601
1.070877 0.5679002 -0.12913017
0.018043842 11.723813 0.6791023
0.7841112 4.954665 1.1751976
0.20722799 6.253406 -0.20654023
-1.5061525 6.597726 -0.09519362
-1.515058 4.1176314 1.3320264
0.7820262 7.776061 0.4243211
0.788622 5.8245273 0.6218118
-0.23018532 7.8169518 -3.29275
-2.3414462 -0.3402263 0.67018557
0.33817735 4.213549 1.6899186
-1.1289018 3.9359236 -0.14604352
0.525301 7.497792 -3.0252342
0.17509954 12.867553 0.11128161
0.24062103 11.382398 0.40196294
1.4081011 6.710168 1.0043013
2.0830796 8.2337265 0.5190269
-1.6550338 6.101348 0.77502406
1.9838088 -0.6665391 1.4257092
-1.1138117 7.080634 -2.727518
-1.6893378 6.1660433 0.3547616
-0.7942287 5.1779428 0.53480434
