2.2026808 -4.6037245 0.8624123
-1.134242 7.9259562 -4.008418
0.023680784 8.876156 0.9848303
-0.48780644 7.176459 0.060880464
0.5264837 6.7338142 1.671875
1.1369265 9.995317 0.65800834
-0.6288736 2.8382154 1.098131
-2.1534212 -4.2665067 0.6494082
-1.1587484 7.608801 0.18847567
2.483986 -4.2261863 1.2564967
0.11428521 5.8117404 -0.23318656
-1.5840721 -0.054041475 0.14332686
-2.3160741 7.2377157 -2.7686703
-2.323111 -4.2476315 0.18000868
0.40750936 12.197397 -0.26562396
1.1361865 6.934184 0.8865619
-0.24019775 4.168361 1.1245757
1.4354606 1.7126604 0.09133075
0.24846457 5.0919113 0.35267097
-0.34313452 3.4983525 1.2637239
-1.4808049 0.5339428 0.49742103
2.0844295 1.5223404 0.6030659
1.9873035 9.072171 1.1717384
-1.582927 7.85996 0.9120312
-0.7015422 10.236352 1.488162
2.8423274 -4.285345 0.050470456
0.15263246 9.974058 0.035626493
-1.567449 0.954977 -0.21052574
-0.17248742 5.1096816 0.7854201
2.852079 -4.5572166 -0.89675623
-1.5821451 6.589873 -3.2092934
-0.35394835 10.264156 0.5230083
-0.64576143 7.553891 1.8122483
-1.0000117 7.943733 -3.5648186
1.9132142 1.7896463 0.85214555
-1.1812779 9.024252 0.9865281
-1.8232065 7.5492573 -2.6290765
-2.1887085 7.9030657 -2.7600849
0.65166557 2.5802999 1.3390715
-1.1660012 8.419415 0.18477793
0.48245034 4.190237 1.3306233
-0.5174839 11.72588 -0.17209437
0.9215249 1.0300074 0.4440804
1.4305054 -1.098274 1.2618538
0.07147974 12.698901 -0.60439223
-1.2801945 8.100449 -3.3850012
-0.510702 10.725654 0.8565497
-0.16173248 12.805805 0.5135875
-2.3292887 7.896268 -3.1417477
0.5200614 7.8477697 -0.2305599
0.90079963 4.6398106 0.39944226
0.87854856 1.9082767 1.2978623
-0.9588267 0.8995114 0.38075963
2.1456892 0.64763457 0.71782005
2.364911 7.4550896 0.5755633
-2.0380106 3.129646 0.21281713
1.0721709 2.7835858 -0.097573474
-1.411857 10.068975 0.6048204
1.6277667 -1.8019886 0.9534446
0.40246361 7.6484838 1.0313343
-0.79210013 10.921209 1.1455369
-0.34611693 3.1728535 1.0423461
-1.2794108 -0.41999713 0.65110046
1.3846816 6.6758785 0.6286901
-0.35993856 7.485888 -3.4928977
1.6731576 9.585577 0.9322293
0.28006554 13.424812 -0.31431136
1.3897856 5.2362976 1.1258346
-1.3003306 10.483406 0.85251904
-2.9086282 8.230196 0.57275075
-1.8296901 4.9681754 0.6894933
-0.93626595 6.9938993 1.2697978
0.6054336 7.426487 -2.2352934
-0.12755948 2.9781997 0.261085
-0.19891655 4.7006392 0.73838174
1.1786454 8.364098 0.47088447
-1.0140777 6.996259 -3.2839417
-1.8201493 -1.9645262 0.986154
-0.542007 12.839563 0.3599974
-1.1668127 1.4026107 1.113227
-1.5188828 6.9374237 -2.9331093
-0.77452475 4.9895616 1.454094
1.2032353 0.4277222 1.2397026
1.9199772 10.032184 0.30959612
2.6279528 -3.916699 0.6219534
1.4024934 3.6926224 0.3335814
-0.94249827 5.8435726 0.14257362
1.2586086 1.3874755 0.46741304
1.4193072 -0.43184453 0.74130756
-0.23049255 5.7756534 1.1262269
1.5412552 5.946257 0.6450582
1.8639563 8.863943 0.30533516
-1.535493 -0.14894897 1.4303142
0.6095298 2.2019548 0.5777582
0.29375467 4.7740593 -0.61444
-0.61119056 6.716123 0.70413315
-1.7189987 0.42493233 1.5124989
1.6990998 -1.4462723 0.77575207
0.67864484 7.3976374 1.289529
-0.8039824 7.858273 0.15605554
2.9942713 -4.6051617 0.24486984
-1.0705891 9.86882 0.45237437
-1.6786721 2.095298 0.3291039
-0.08941962 10.544795 1.3245056
0.5465682 1.9331334 -0.08692185
-1.4048599 5.541814 0.73358476
-0.3173636 7.0493813 0.42801225
0.408729 1.4696412 0.4126711
0.7512236 10.53367 0.920829
-1.3874792 1.6972396 0.90156686
0.847424 2.0663474 -0.27981147
-0.8175838 6.504185 0.06048786
2.7601156 -4.3711104 -0.39916137
0.11425815 3.9922118 1.5084804
-0.31966272 6.969604 0.8059217
0.043263197 12.142401 -0.116188094
0.56299174 1.5423362 0.050188582
-0.4806531 6.3187017 -0.16353047
-1.6534803 1.2181393 0.18246599
0.61707985 13.049447 0.3285932
0.41452643 5.0187144 1.3822343
1.1534027 0.9680109 -0.22542699
0.700988 10.359025 0.28846434
-0.085874006 13.6327305 0.6811917
-1.7476822 2.3319743 0.96808434
-1.4299839 1.7953879 0.49464557
0.7880271 9.374559 0.3282472
-1.1799513 6.2319202 1.0262581
-1.2775258 7.2836504 -3.0705795
-3.213758 7.1241903 -1.1533175
0.37297615 5.455853 1.330817
-1.1599705 0.59377843 0.28172538
-1.2150246 7.220945 -4.042624
-0.51871514 6.7648697 0.2895173
0.8687888 4.198413 -0.5036177
-0.225232 7.7875237 1.2633379
1.16154 8.64632 0.018489012
0.8795311 6.3355913 -0.2288529
1.0282801 4.535584 1.5236142
-1.2767351 4.3392878 0.7257284
0.7908434 3.1902466 0.5369313
0.08773331 5.759275 0.51201254
0.016701566 4.192419 -0.25213546
0.33198732 6.2964797 0.81633866
0.58823967 3.0830245 1.3623446
-1.2320986 3.337158 1.4551836
-1.3216231 3.4718406 -0.04720226
1.1874416 7.8142633 0.91997623
-0.06285077 3.691142 0.49309978
-1.6615089 8.2425375 -2.4090004
0.22358991 7.732137 1.7688049
0.41698498 5.5939946 -0.11070591
0.6034671 7.7959504 1.3036764
0.2512524 13.570831 0.09942636
-0.4159266 7.0432243 -2.9563425
1.813711 -0.082427815 1.4280906
-0.48038942 6.1331015 1.8575175
-1.1629977 5.4779525 1.073331
-1.6720371 1.3245355 -0.21780822
-1.2481554 9.516817 0.33979166
1.6125065 8.581508 1.0883546
-3.0912478 7.8910265 0.45281798
-0.79315454 11.064597 0.70537454
0.6444379 4.624246 1.3387566
-2.1096616 0.6929101 0.9363491
-0.5419774 5.6657844 0.14071825
-1.2701027 5.8605094 0.9032503
2.2908823 -1.4204121 1.1151922
-0.6541005 1.9847411 0.8170842
-0.21059535 6.873379 1.2464408
-0.77405846 5.2272635 0.1785317
-1.2135046 8.239691 -3.0433514
-0.7543405 7.4698234 0.39513218
-1.2613313 2.64073 1.3340696
-2.0165374 7.1996055 -2.4586897
-0.624147 9.594449 0.92905647
0.14497648 10.376553 1.0223784
-1.8026961 4.602068 0.8642048
-0.3182333 7.1134443 -0.37955868
0.055072416 10.449019 0.56527907
-1.1341175 6.930942 -2.91085
-1.5305345 3.307919 -0.33426526
-1.7096232 1.9459622 1.0792404
-2.3548248 -0.6787034 0.9541034
-1.0829052 1.0180433 1.1692396
0.19470453 9.2948065 0.9301668
-0.38260776 10.91451 0.13981746
0.6700316 7.7034163 0.117567204
0.08564839 13.207984 -0.06681732
-2.1519077 2.9471307 0.52129364
-0.9841939 8.404353 -3.5393736
-1.5032606 7.7965713 0.088650905
-1.3530482 4.9040403 -0.3323514
-0.42530906 12.449791 0.46938905
1.2313963 3.4779527 0.9472647
-1.9742604 2.4882028 -0.09736459
-0.99336076 3.8960848 0.5330787
1.2252704 5.693377 0.551599
-1.0089344 9.865843 0.83428407
-1.1286708 8.364156 1.1900843
0.059905373 3.3783464 -0.35245934
-0.7936595 13.412837 0.5063494
-1.0196096 5.772644 1.6025233
0.8363573 1.6495706 -0.20866983
-0.0006883099 9.139437 1.3247671
-1.0690169 4.6962023 1.2769902
-1.7437125 7.567265 0.67289704
1.1455305 8.262404 0.92934984
-1.2005494 6.116091 1.4515572
-0.9993165 4.6663775 -0.12654075
0.61843127 8.185648 1.3112131
0.23145723 13.166408 0.3006366
-0.43689108 4.9774747 0.062706955
-1.0918165 9.868322 1.2104384
-1.2961314 6.5002513 0.44988656
0.8356323 9.739941 0.07203515
1.5203891 3.1705492 -0.30388704
-1.3460456 8.221264 0.877833
0.38841456 10.656534 0.3998466
0.5526355 1.1163445 0.23866667
-1.4965199 1.2444631 1.3320428
2.3048654 8.489028 1.1077712
-0.039125744 9.618074 -0.08402979
1.0675675 7.1726146 0.5518689
-0.05989977 7.5730944 1.5861094
2.0667853 -0.41685492 0.4747007
2.2016945 -1.6304972 0.7251883
1.4429151 2.952249 0.039639983
-2.5537925 9.6744 0.5676396
-1.3581065 9.989003 0.20086348
-0.9129033 7.3338366 1.5612291
-0.8531042 3.8433464 1.2016886
-2.228692 0.3660321 0.32265666
0.04517272 12.449016 0.52073145
-0.0020749236 9.752418 0.39998674
-2.5312402 7.559151 -2.927829
-1.5333647 0.24963613 0.8787902
-0.28662676 6.7230897 -0.47965416
-0.5390529 2.3687072 -0.07393375
-1.9908234 0.32048717 1.1153419
0.28016856 7.545597 0.014457423
-0.6672446 10.090117 0.8086341
-1.7424164 0.95674604 1.1990763
-2.8398893 7.800068 0.12901835
1.0726665 7.011315 1.2859423
-0.44886088 11.810022 0.68393344
0.689942 5.265939 1.70147
-0.46998715 2.8197145 0.42248094
-0.28275138 7.2634087 -2.7274628
-0.37688702 2.4417078 0.26353115
1.9939253 1.4684289 0.2778379
0.34347978 1.8662463 0.26019377
2.3295333 8.931392 0.98949057
-0.1457237 4.8824816 -0.6272558
1.7227368 2.1200354 1.0093491
-1.084166 7.443054 -2.4282613
-3.2276406 7.643756 -0.4790284
-1.4901791 7.5970726 0.3923376
-0.65214545 12.026241 -0.38424516
-0.9233914 10.640728 0.8800471
-1.3838668 -0.4126349 1.1625983
1.9476388 7.550087 -0.48875958
1.5779929 0.5506929 1.1376824
-0.4881855 7.3749704 0.68332577
1.0381376 7.1689534 -0.11650144
0.2881751 5.324515 1.7054019
0.63816905 8.126023 0.14369266
-0.0020792496 4.761163 1.4845275
-2.104313 0.69467854 0.12807742
-1.0886016 2.2902794 1.3209865
-2.1787772 -0.968078 0.8581164
-1.0366771 3.6255069 0.8915864
-0.28273708 8.06296 0.80266446
-0.36225846 8.536286 1.0623629
-1.6446569 10.59922 1.0715655
-0.90930307 7.550044 -3.0933642
0.41008896 8.947684 0.93539727
2.0864 -3.8844914 0.7692476
0.7003331 3.839974 1.1834201
0.47535172 6.386338 0.064987354
-1.9896089 3.532445 0.16524784
-3.310435 7.3043985 -0.48430666
-1.8396406 1.225558 0.5099429
0.9564092 8.636707 0.66496456
0.92763966 5.5931396 1.6001798
1.1090449 0.038571283 1.0872093
-1.1385305 3.0735006 0.024623776
-1.3572528 6.835022 1.1178178
-1.9010127 10.471987 0.4384604
-2.2543523 7.0096016 -3.4746292
0.10562695 9.574317 1.267438
-0.6683596 12.782897 -0.37729537
-1.5765139 0.84178454 0.19526446
-0.98842883 6.616909 1.1607933
0.12560466 5.7238216 1.7482989
0.92124575 7.24723 1.622249
1.9956949 7.2478065 -0.17371571
1.2481364 -0.10107086 0.5893712
-0.10109918 11.646976 -0.7258175
-0.11543522 3.5949514 -0.08207305
-0.21983607 6.1353025 0.4353038
0.29028898 7.2181773 0.6591143
1.2324928 5.2682443 0.7318852
-1.9032835 8.692745 0.6969357
-0.45466095 13.138551 -0.441934
-1.4453921 5.5350237 0.35162795
0.8558922 3.0015683 0.14873317
1.4803133 2.7666285 1.1158297
-0.4894119 7.62854 0.048743963
0.5030692 13.225065 -0.069327585
-0.16412541 8.364609 1.624147
-1.5654222 3.3872864 1.2204187
1.2545514 9.785093 0.16576876
1.9292433 -0.76823205 0.33740547
-0.85040593 6.941461 0.0852361
-0.5153596 11.389625 0.6013655
-2.0382483 9.435938 0.48818293
-2.6911972 8.918032 0.7319684
0.35709256 7.3758473 -0.34919402
0.9996751 7.8266416 1.3148592
-0.32105097 7.4458604 0.34649292
-0.69762063 4.8160224 1.1071548
1.0037547 5.251752 0.063217446
-1.1060748 2.623387 0.58125246
-0.8864409 12.626235 0.40195164
-1.092541 4.139052 -0.45486596
1.1982064 3.1066136 0.28863645
0.3619964 1.8295196 0.648248
0.8193206 7.614416 0.973481
-2.9412355 7.016966 -1.3891051
2.2605977 -3.933168 0.38335425
-1.7279987 7.1982346 0.74784225
2.691762 7.463734 0.39822698
-0.84274125 1.2624259 0.9196857
-2.4493215 -4.6056256 1.341608
1.495873 6.3138638 0.84084386
-1.6642202 -0.65734863 0.9167647
-0.2586472 12.495674 0.81124616
0.8830924 2.8620107 1.1697543
-3.1077561 7.149435 -0.18497431
-1.4967408 8.888246 0.7327145
0.74377304 9.831394 0.47560993
-2.1375918 10.230034 0.30383447
0.115072146 9.412228 1.6329925
-0.760513 8.442875 1.2048099
-2.52517 -3.9202964 0.7388364
-1.5308931 6.442738 0.9945024
1.5423095 5.5105176 0.815033
0.06932207 10.880129 0.5714989
-0.9112666 3.485637 -0.10977458
0.4309156 2.622261 0.60976535
-1.848883 -1.450762 1.4976504
-0.29318395 13.5534 -0.37934133
2.0442567 10.276491 0.5677135
-1.0965297 5.7842054 0.5266697
1.0182234 0.75480187 1.145578
0.18304227 4.8564653 0.73582727
-1.4021378 7.8896136 1.2472917
-2.883442 7.0985293 -0.9713135
1.4864812 0.9128821 0.14552993
-0.1315445 8.80571 0.4285727
0.2987218 2.454619 1.1622405
-0.9531565 9.15376 1.285251
0.018793546 3.96493 0.09812905
-0.7148999 5.3184514 -0.47034597
-1.775266 9.83405 1.2420985
-0.12366583 8.194013 1.2547419
-0.8316643 4.3152165 -0.17228228
0.25052923 12.892661 0.56767595
2.6435008 7.272357 0.08906788
-2.233001 -0.0128348125 0.11865746
0.87142444 8.072946 1.6368283
0.6080711 2.8822482 0.3705735
0.46148926 5.52666 0.5903293
-0.6150372 3.1810238 1.2911854
-1.051963 8.540988 -3.217365
-0.6318217 5.872073 1.4418408
0.63320994 6.529651 0.7575718
-0.23908362 7.8597703 0.3271886
-1.9631425 4.6309195 0.47663298
2.2434106 7.9159546 0.734494
1.8543421 8.795319 0.80047965
1.2905754 3.788185 1.3130169
-0.16354237 11.915058 -0.35942727
-1.7498628 9.914008 0.8754925
-0.116918415 5.5539994 0.81879336
1.0701791 1.578173 0.107979566
-0.3686336 2.869614 0.81814665
-1.1530321 0.6059595 1.0421242
1.4555907 7.0675077 0.6299159
-1.6661958 7.177229 -3.6063294
-0.94486105 7.1360908 -2.6521606
0.14573386 8.043436 -3.1043844
1.8653592 1.354354 0.8448047
-0.52228206 3.5315967 0.49431956
-0.58343756 9.11479 -0.19534047
0.57709247 7.110621 1.6621532
-0.16321227 12.098129 0.5803798
0.11546337 12.354614 0.16673695
0.74189293 5.7172947 1.3010811
-2.061912 -1.096914 1.5195403
-0.2993259 6.602713 0.96496516
-0.05745663 8.207149 0.12684582
-1.7317277 7.206902 -2.7497811
-0.55607086 8.785154 1.7012885
0.12886958 5.9410844 0.13209331
-0.7988788 9.179529 0.9225695
-1.1594965 8.025586 0.18503226
-1.6766323 0.5543961 1.0692053
-1.8242264 4.611043 0.09136435
0.1804432 8.670842 0.63309693
0.56746244 12.8721485 -0.04404445
-1.6830888 6.748088 -3.6010466
-0.80385834 5.4894524 -0.086041525
-1.9027562 1.3069017 1.2927738
-1.7466447 2.8283286 0.3944889
-2.845319 8.584339 0.44558433
1.217806 4.8769445 1.3696446
0.44683433 10.349951 0.6732519
1.8433764 10.483032 0.80256027
-3.2635722 7.60832 0.26166338
-1.0151373 4.8800936 0.86828977
1.011483 10.085317 0.24963066
-2.0017972 -1.2491752 0.7367388
1.2897693 6.7380815 0.30798346
1.1583033 10.79253 0.76124704
0.73488235 8.213235 0.5509178
1.2949518 3.4101317 1.2806016
1.5587692 3.1810548 1.0590162
-0.010630307 8.3716345 0.91272205
-0.9517746 7.5530863 -4.0605736
-2.2246673 1.7972503 0.44683167
-2.813558 -4.5424275 -0.7172426
-0.7494339 9.098387 1.6451504
-2.1892138 -2.494788 1.2858698
1.0268055 10.096492 1.4722472
-2.0799344 3.8529756 0.44510785
-0.33051705 12.810971 1.2263763
0.9634926 0.41552243 0.88442546
-1.9898953 -3.9221482 0.8249584
1.3982525 4.7155876 -0.1761242
-3.293696 7.420562 -0.8733443
-2.1456628 1.4567817 0.2855247
-1.5297108 3.1227531 0.7141585
0.61903876 4.5738816 1.7362885
-0.88018614 3.4079688 1.3472712
-2.2852805 -0.017156247 0.9054142
-0.45552883 8.503851 1.4168429
2.1561162 8.645425 0.6215025
0.9073029 5.082174 -0.39324978
-1.2640017 6.6117125 0.78437126
-0.09575462 13.75221 0.3027045
1.1335344 4.2371297 0.92794037
0.037286013 5.638865 -0.5977204
-1.6162157 2.6856587 0.7188302
1.1675841 4.948974 0.975621
1.51648 10.216478 0.7009306
-0.7560814 5.555088 0.4428008
1.0639404 8.776732 1.4271296
-1.5340848 8.548984 0.11926433
-0.9241844 8.3121195 0.85524327
-0.43931592 2.184281 0.5621693
-1.196427 5.5449767 0.03231513
0.37613517 3.0051596 0.6581508
-0.609977 6.377635 0.4316283
1.5635033 8.96238 0.564987
0.21737611 3.6100783 1.5198629
0.58442205 10.01001 0.8445589
-0.08293265 7.3090963 0.706755
0.053458784 7.9234266 0.9551467
-1.9076791 -0.73754066 1.6030804
-1.1644394 0.23704273 0.5192418
0.09914759 11.445322 0.008541858
-0.97449374 3.4788039 0.5963801
0.95901096 7.458153 -2.0114837
-1.2134209 7.8344088 -2.5231082
0.29271895 9.946317 1.1385233
-1.4724295 5.290713 -0.2140352
1.476234 9.767853 0.55674684
0.5111553 5.982072 1.045481
0.71637416 5.3307366 1.3379143
-1.013524 10.263234 1.0946813
1.2152914 -0.82282513 0.2871997
-2.1452296 -4.5843577 0.91973346
-0.23191147 12.982986 0.8879487
-1.0226438 6.778896 -0.2419861
0.08041619 5.188004 -0.6140328
0.57741266 1.1318716 0.65666324
0.24820955 8.484008 -0.19981292
-1.5128385 2.0937893 -0.2865456
1.3061702 4.9081845 0.5703658
0.23678473 6.5568247 0.49600944
0.27177086 9.052378 0.5740445
0.4765082 5.999918 -0.091365874
2.0002937 1.8856127 0.41245583
-2.292654 6.810242 -3.125406
1.7993346 1.0686527 1.136407
0.85702217 7.7646093 -2.0928292
0.12760958 4.21932 1.1666743
0.45854676 9.210434 0.2326184
0.88107175 -0.7484457 0.58351064
0.51627755 13.391184 0.28978863
2.0832355 -4.1829414 1.0452754
-0.7170313 2.4502275 1.1982033
0.65541977 7.0248294 1.289222
1.7997153 7.2147884 -1.0237105
-0.49219862 2.4025743 0.9169779
-1.0191096 2.6778677 1.0131012
0.9144954 4.8284054 -0.044900697
-0.8786328 8.22471 1.565858
1.0876229 9.604194 0.4534012
-0.14742541 7.98526 1.6305648
-0.5896375 7.0480704 -2.5280669
0.32632378 12.624606 1.0412163
0.06003081 8.603445 0.14500673
1.07988 3.8217604 0.6098244
1.2475038 5.668872 0.08529776
-1.8537037 0.45643806 0.66445726
-1.0730929 7.315469 0.5695799
0.46314076 4.410909 -0.52464026
-0.43922767 10.077221 1.1402162
-1.8566661 2.402957 0.54301447
0.934103 2.3008482 1.3204643
1.1655782 0.1862358 0.051192425
1.9808855 7.5933123 -0.89240813
-2.290691 -0.00793802 0.509073
-2.217104 2.539782 0.57078433
1.2274361 1.488111 0.856507
-1.1430703 4.0564227 1.56621
0.62266874 3.6402898 0.12624095
-0.52067596 3.8097517 -0.5418931
-0.0066298964 13.630436 -0.17008819
-0.70476824 3.042434 -0.014514842
1.679867 -0.9545903 1.4553804
-3.3353329 7.4712143 -0.114335954
-2.0563354 -1.8341463 1.4186151
-1.568342 6.154813 -0.05656124
-0.041019484 3.7996285 -0.46222454
1.4995277 8.583173 0.2924052
-1.3653578 4.7369843 0.68018353
2.0292869 -1.2660861 0.6367196
1.1189725 6.612628 1.3180141
-1.6651578 3.9911046 0.45110205
-1.4917706 9.052249 1.254541
1.6789327 9.723589 0.25318533
-0.5211067 8.123787 1.0980742
0.3735036 9.245942 1.2909515
-1.6990068 8.284048 -3.695055
0.6146659 3.5056028 1.5098622
-1.1443324 9.684092 0.015278704
2.1969926 -2.126019 0.7538309
0.42867008 2.5245903 0.23776947
-1.4746315 7.476225 -2.4357321
-0.10720104 4.7526193 0.06332107
-1.085212 10.188565 1.4942006
0.068588585 7.6180687 0.34318277
0.61406624 12.690569 0.3798393
0.6250138 7.2570143 0.070871666
1.7357794 4.0119348 0.8275538
-1.6541497 8.016932 -3.4829118
1.2373549 2.2689028 0.3449123
-0.81191945 13.1366 0.8951127
-1.3718972 10.1088705 0.99393576
-1.3579658 7.1424065 -2.6163926
-1.4906074 2.3257892 1.2752054
-1.0868964 3.0815136 0.6650675
-0.1858709 11.464144 0.77566034
1.2447606 6.228291 1.1352866
-0.273335 13.282561 -0.09538531
1.0865599 9.425477 0.032739114
0.90524733 1.5754489 1.1161013
0.9260429 5.0649557 0.40147054
-1.4165641 1.9844141 1.3309467
-0.6666668 3.4627452 0.97336674
0.95527375 4.6168213 1.1016054
0.7359075 1.7802213 0.7674155
-1.9162744 3.1277964 0.7210247
0.8424927 5.372804 0.65553236
1.050003 10.727058 1.1412827
-2.8720794 7.1705675 -0.4850433
-2.2839367 2.1479435 0.6346399
-0.90708536 4.487273 0.9587615
-1.0326017 7.783883 0.52449095
1.1645467 6.747394 -0.04424303
-1.5670742 4.538793 -0.23749721
0.69230825 9.39254 -0.06356605
1.3597028 7.5928016 1.1970624
1.5516105 0.6460985 0.45670938
-0.47533205 5.416211 1.8744857
-1.9515907 -0.7755088 0.6170151
0.07036009 4.574235 0.41689667
0.86847097 8.464663 0.26332438
0.3976488 8.806119 0.2804715
0.2531954 7.0682497 1.3962502
-0.29009035 5.9801774 0.12529846
-0.34271032 9.562098 0.24021181
1.5083107 7.464719 0.8048751
0.5134718 2.7958207 1.0127097
0.32514727 5.1807895 -0.07293708
-0.33158606 8.897144 0.11047331
-1.4761177 2.707464 0.023591723
1.091104 6.486132 0.858433
-0.9280985 5.5835357 0.79181725
-1.2250024 5.986407 -0.14652929
0.20270957 7.3089447 1.7684808
0.4829861 9.156626 1.6706203
1.3071535 8.019638 1.2843006
0.82641894 9.69291 0.8438791
-0.11716898 12.329215 -0.45491955
1.5261601 0.28371075 -0.18144228
-0.9496095 8.501142 -0.20781839
0.42276046 9.647719 0.3032626
-1.7788074 7.874928 -2.873072
-1.7215382 9.787481 0.508574
-0.2962738 9.919316 0.7657294
-0.6051543 7.8783207 -0.24324681
1.0567278 9.039845 -0.026857661
-0.1605907 12.62798 0.1347608
-0.2394329 4.9034767 1.1334131
-0.08340306 7.241136 1.370213
-0.40544388 4.559135 -0.6134697
-1.9297322 -4.6097956 1.3296832
-1.5839442 9.722649 0.13672203
-0.042199656 13.18377 1.168033
-0.71811104 2.6491237 0.12088227
-1.2291492 4.3082952 -0.05378408
-1.1073203 10.732504 0.52295864
-1.4007645 6.9568677 -3.3338661
-1.7179357 3.7125502 -0.20838414
-1.8749081 9.092188 0.667381
1.4990578 9.889697 0.9686421
-0.7434808 7.0700665 0.4460448
-1.4544516 2.4801767 0.4299596
0.49704963 3.2767742 0.27565986
0.16096611 2.773863 0.94777215
0.7631876 6.181898 0.7803067
-0.93180126 4.0968695 0.16844316
-0.9641333 8.967096 0.58289915
-0.78161126 13.125644 -0.14867212
-1.4036347 0.9557598 0.54602003
-1.119813 5.088743 -0.026427664
1.6037692 4.5664444 0.14933984
-1.6738969 0.2720323 -0.11900659
-1.172312 7.796883 -2.1163154
1.3613372 6.310516 0.44751653
-0.39976 4.8435206 1.5081576
0.4499211 1.494522 0.7642389
0.034450095 3.4396904 1.192239
-0.9384719 7.66837 -0.20827919
0.5107545 10.2955065 1.124049
-0.7084443 6.923328 -3.6028836
0.23323537 5.499245 0.21740814
0.7841733 10.946816 0.85728014
1.1365103 2.5519152 -0.4017861
1.9607136 -0.09154211 0.30939364
-1.0203521 0.953913 0.7599513
-1.6457274 2.9037297 -0.29998612
1.6290617 -0.8067629 0.076605916
-2.6898975 8.539434 0.10742792
-0.742084 12.3906355 -0.18982461
-0.937962 8.024628 1.2033849
0.537588 7.9159994 1.656889
-0.94876325 2.6988535 -0.22397462
-0.5680912 1.8003556 0.47790202
-3.132639 7.7886257 -0.05082605
-2.1995883 0.3127268 0.7211166
-0.4138548 7.1137652 -3.3313122
0.26742896 12.103005 0.5088253
0.8516063 9.366008 1.6175328
1.7207444 7.553053 -1.2060299
-0.44685975 7.6664505 0.9579022
0.53506815 5.6733713 1.669081
-0.8135127 13.40833 0.13599402
0.03275454 7.208752 0.3113582
-1.0171833 3.0220413 1.3748921
0.1508814 2.6152704 -0.05782466
1.7609701 1.4207283 -0.018942183
-0.42459375 5.3662786 -0.12667204
-1.3009382 7.8713007 -0.18079576
-1.7227447 -1.7353756 1.2691953
-1.6555189 7.269636 -3.997173
2.1485898 9.227036 0.25663868
-0.25164232 5.9067464 -0.56100255
-1.095196 7.463996 -2.7965837
0.65625584 3.965133 0.46977228
1.2425569 5.3120346 0.36355877
2.1730583 9.729053 0.95711714
1.7936538 -2.1403315 1.1137193
0.20863064 6.9206243 1.7743028
0.52363175 8.755489 1.6633859
1.4189422 2.7961361 -0.34664148
2.211618 -3.0352871 0.8196028
-1.7946798 1.6440859 0.34252793
-2.2861602 7.4816394 -3.2307765
-1.2678547 7.2392697 1.4189928
-1.4383873 0.26873612 1.3199518
0.15198712 12.255317 0.9184854
-1.1636587 7.171942 -3.5817719
2.0672712 9.6278925 0.29839516
-1.1301765 7.2485104 1.0228144
0.00047938692 11.95492 0.26557183
-1.367492 0.25295183 0.1788985
-1.1543286 7.6014104 -3.356755
2.2760963 7.2022495 -0.42140478
1.1873991 1.790293 -0.2998997
-2.5175543 8.267158 0.5762444
-1.2850636 8.69017 0.45988822
0.1905896 2.4191444 0.7681316
0.6110933 6.0996113 1.3822411
-0.99981385 3.7078447 1.5502138
0.25516647 8.357798 1.3797327
-1.0554599 1.8335733 0.68978643
1.9581213 0.67366296 0.37094027
0.92206395 6.8427105 1.6174995
2.5146894 8.619599 0.8436393
-1.3150163 9.328919 1.3856677
0.7977103 10.66825 0.5505801
-1.3478909 7.071847 0.7651946
-0.7467756 8.736247 0.8698923
-1.7055831 3.2366393 0.39376122
-1.1798857 6.93071 0.44934595
2.6155267 -4.030807 0.23506291
0.39862442 6.921787 -0.38653508
2.240628 -1.1626709 0.87204343
-2.6633396 -4.275527 0.66813695
-0.26807034 8.696858 0.7550243
-0.86046404 3.0958905 0.98454714
-2.075592 -3.5519583 1.2085863
-1.7620394 8.87126 1.0369935
-0.86439687 2.701897 1.3779685
2.1237843 -3.163626 1.1507254
0.18309471 3.6221051 0.16454431
0.7832624 2.4739962 -0.37628812
1.5748194 1.3974065 1.1710877
0.5436719 9.409092 0.640219
-0.33492446 4.4950695 0.3808418
-1.6926782 4.948595 1.0856124
-1.414568 0.90107816 1.1276855
2.7458568 -4.643499 -0.16272868
-0.2792454 3.206859 0.5932002
0.2651597 3.8184752 -0.2168086
-0.4716068 8.146013 -2.8829012
-1.8308849 -0.36189047 1.586523
0.31375414 8.332391 0.3301819
-1.1647216 4.9620957 0.3840457
0.48904502 12.364056 0.38950947
-2.728077 8.956619 0.35220194
0.8739014 1.3597671 0.75846976
1.3082783 0.6633473 0.8229639
0.8278646 10.486542 1.389702
2.0654392 -0.12804237 0.7537561
-1.4547988 7.5088534 -2.0633993
-0.5722132 4.1056232 0.46910197
1.9561973 2.267896 0.3208385
-1.7545184 10.234679 1.196451
0.22306715 6.141868 0.43272644
0.72647923 5.4961886 -0.4145288
0.87338334 4.9221478 0.7464115
-0.8857734 12.764168 0.82965523
0.8157144 6.755229 1.0134251
-0.32722363 9.136819 1.6100821
-1.3332311 6.76309 -2.4609494
-0.93086714 4.2976403 0.5800162
1.4971175 -1.4750384 1.1445125
0.0718608 6.589417 0.9966511
1.293758 3.7855155 -0.005831568
-1.375695 9.660488 0.69371647
-1.990262 6.774455 -3.4320536
-0.5307272 12.506589 0.09495176
-1.8115441 0.64624715 -0.17616093
-0.665554 8.868321 1.2704852
0.12799037 3.5780103 0.8424172
0.35286784 8.138482 1.0651268
-1.6100061 8.138449 -3.114716
-0.060760405 7.337747 -0.3728433
0.34989786 3.6658196 0.4756501
-0.82585096 7.3813186 0.060675565
1.8436749 9.870956 1.1862847
0.43373132 7.436705 0.35765123
-0.3652303 12.194916 -0.18081859
-1.3333961 2.83969 0.88673574
-1.7015476 6.8941836 -2.4304476
-0.14954643 7.367259 -3.0871902
0.73108953 4.7054257 -0.5357799
1.9010097 -0.7369826 1.0450103
-1.1134791 3.675418 0.19831836
-1.1090845 5.3290553 -0.32655665
-2.1010723 7.149416 -3.0686796
-0.31411684 3.9027414 0.7110283
-0.34394187 13.707437 0.03381361
0.70490664 9.017814 0.5868312
-1.9625807 -0.34141067 0.48256478
0.926473 5.951683 1.0615847
-1.2224394 6.585076 -3.2108464
0.8065741 -0.3079596 0.5182264
1.4424324 9.000208 0.1800104
-1.3630685 3.6816344 0.4616074
0.06431719 12.736242 0.82830274
-0.7934819 7.159485 -3.0284739
-0.9176483 13.0353155 0.2088438
0.40275574 12.10732 0.14746396
-1.2546583 -0.09922616 0.8089073
0.6799632 5.231717 -0.13404848
-2.325027 -3.8426385 1.0987233
0.81436247 4.027126 0.8158596
1.0843726 5.226606 1.4605825
1.4410348 10.003187 1.3616765
-1.3654937 2.2826653 0.052942988
-1.9582285 1.4385244 -0.0128090205
2.0948095 -1.6548216 1.3535992
0.6984326 0.38084728 0.53470796
0.25631505 11.942893 -0.511991
2.3703537 -3.6516314 0.6145749
1.4742558 -0.15563412 -0.08047003
-0.23475747 8.063027 -0.2773257
1.70422 -0.10967229 0.6421002
-1.1327554 2.0052435 -0.253454
0.1511569 6.2545705 1.3547996
-1.4883411 5.6974106 -0.16820319
-0.87145716 9.417639 -0.09486968
-0.7324089 1.571346 0.216092
-1.4000676 8.487246 -3.4686143
0.7957423 1.2432975 -0.102044396
1.5464084 4.9870453 0.0912878
-1.1907705 1.9188143 0.16199936
0.19929968 4.599331 1.8368548
1.2022102 7.6604204 -1.8587234
1.4718609 7.600588 -1.5072227
1.6400955 7.400999 -0.82057023
0.20866768 4.125432 -0.5757895
1.0893219 5.496619 -0.24004613
-0.7049223 10.813686 0.42312258
1.1178675 3.1865544 -0.14881031
-0.67092746 6.5404696 -0.36662096
-1.0060861 7.5509167 -3.711197
-0.5541491 2.0657752 0.1764248
-1.302648 6.143985 0.6344
1.748446 0.66950214 -0.018348608
1.2388948 2.0435438 1.2641654
-0.5846307 8.3869295 1.7628489
-1.0954072 5.098484 1.6192147
-1.3291616 2.431964 0.89948416
-1.538291 7.351642 0.06721934
-1.6597006 4.945535 -0.06392721
0.6638382 2.198411 0.17573622
-1.6393745 8.521335 0.95737016
1.2163025 3.0491955 1.1700578
2.6384985 -4.5846543 0.26106563
-0.45966208 9.53196 -0.12633045
0.4554875 9.601352 1.0357355
1.8997487 0.27423882 1.2907887
2.0326965 8.711272 1.1207072
-1.6351744 6.512357 0.23910075
-0.18033563 11.592076 0.35703084
-0.945214 6.6653 -3.448024
-2.982821 8.1827545 0.1640456
-0.8825864 1.6859583 0.9831079
-0.11370913 6.562105 -0.17254776
-0.9061356 4.7219477 0.5685735
-0.048463855 13.318637 -0.46235767
-1.6289349 -0.27482098 0.76949954
-0.6637827 6.811488 -2.8212605
-0.8296666 9.557319 1.2715458
-0.8691048 2.0141633 0.42461455
-1.1955748 0.9103105 0.0088101635
-1.4809134 7.3738227 -3.3616579
-1.4008924 0.6639364 0.8109371
2.5002658 8.118153 0.39515415
1.5628601 -0.733807 0.44109187
0.799592 6.001614 1.6695917
-0.19711879 11.494452 -0.27519417
-0.6055888 5.8923597 -0.16661774
-1.8189868 7.9414024 0.5435574
-0.84096766 4.8327575 0.170293
-1.5111321 6.0866866 1.1843057
1.3959512 7.158215 1.0898088
-2.2506816 1.3746657 1.0565917
-1.051262 6.8795514 -3.818803
-0.524232 13.220083 0.24699652
-0.45684186 7.5369034 -2.45496
1.0928168 -0.49661607 0.3711298
1.2213387 5.5494537 1.2709645
0.7381091 3.2572358 -0.12819338
-1.5348319 8.422371 0.5626896
-2.6538167 8.168217 0.16378738
0.116999045 3.2898717 0.47516516
-1.537024 9.27186 0.91952413
1.1737264 8.963198 0.73856646
0.54293257 6.5617085 -0.36224112
1.2510387 10.399659 1.3122874
-1.279532 -0.11577153 0.40738487
-2.334121 -4.5967164 0.45478767
-1.0021118 6.5137086 1.557489
1.4118885 2.503579 0.01725923
-0.60876864 4.715315 -0.26723623
1.4312916 0.6861155 -0.23072799
0.38506928 11.036993 0.95319635
1.4995062 1.562125 -0.25572774
1.4412404 -1.1389129 0.90163124
2.3023229 -4.283379 0.25799224
1.7778573 0.0062670074 -0.0015171733
0.5924371 4.5416155 0.11141009
-0.73767674 7.87476 -3.874595
-0.4726618 8.070836 0.078972995
0.21243466 8.147773 1.7411954
-0.48036444 3.8346539 1.0812908
-0.96235687 2.290922 0.157042
1.6780381 0.8542892 0.84470594
0.55538034 7.49818 1.6611097
1.6793681 4.810758 0.42739052
1.3906504 2.3571944 1.1107664
-0.13011232 7.3974104 -0.023014093
-1.731965 7.428153 -3.0709436
-2.6928937 -4.189378 0.29103428
1.7280697 2.8870685 0.8181889
-2.0132697 -4.2652965 1.5542164
-0.6031692 7.5395436 -3.8267891
-1.2774225 -0.6691653 0.9011806
-0.8715226 3.32771 0.26659253
-1.6073343 -0.38058192 0.34600022
0.6576844 6.6456037 1.3536768
-1.8855664 5.0192785 0.29132548
-1.5893768 7.852201 -2.5226436
0.8240062 2.5446484 0.34625393
-1.3112369 4.372277 1.0717293
-0.27501106 5.03989 -0.29121187
-0.6598447 12.027366 0.028574446
1.5430115 3.2879899 0.38697755
-1.2901043 7.4662127 -0.18298574
-0.8143699 1.2356102 0.47035852
-1.1026115 5.377905 0.35878187
-0.9776361 6.87861 0.82629454
2.5010266 7.7111006 0.117890775
-0.30545247 5.3677897 -0.55991423
0.12381139 9.408335 0.561537
-1.3604974 7.0885844 -2.191513
-0.38423756 12.771022 -0.62545097
-1.4300654 1.5368083 0.13572192
-1.1235882 2.626125 0.12738663
-0.5830967 5.682809 -0.48904702
-2.7249591 7.2453756 -2.7955835
2.296835 -2.7752094 1.1100851
-1.6309102 4.5372 1.2329792
-2.0419216 1.8610094 0.108084194
-0.5870907 12.419546 -0.56416196
-0.64531314 5.7749467 1.8153697
-0.7874156 9.595731 0.2750773
-0.54064906 5.765378 0.77473915
-0.056343995 6.764261 0.24944785
-1.1086931 9.468403 1.0228524
-1.6327055 2.4953794 -0.28269514
1.8897018 -2.3698008 0.8837864
2.026165 -2.4694424 1.2633728
-2.167514 7.576957 -2.5186033
0.74795204 3.9572482 -0.17843218
-0.9711666 6.1987276 0.43250325
0.6815021 7.1410837 -0.29410592
-0.6916342 9.823337 -0.014157811
-0.49004614 9.860932 1.5154985
0.44176567 3.9830253 0.13515124
-0.88996583 6.1686788 -0.23837903
0.95201004 5.2862396 1.0421377
0.8274841 10.224176 0.62141603
0.911864 6.951324 0.19866301
0.8004757 0.055204503 0.38977832
-0.63250977 8.171828 -3.56277
0.99989855 3.6117969 -0.17506666
-0.9502538 8.103977 -0.1853534
0.47304663 2.342781 -0.1902706
-0.6007729 11.194028 0.3109745
-1.5406635 5.393138 1.1753473
-0.56879336 8.320192 -0.2225548
0.39438522 9.644139 -0.05637637
-2.3035374 -0.3544453 0.25438154
-0.1430994 4.3507247 0.049694814
-1.1533406 8.552434 -2.8411336
1.4390874 -0.09947327 0.95651627
1.8321222 0.3349107 0.19242771
-0.09455499 3.7978559 1.1991078
2.0975494 0.9560027 0.904308
2.1160414 1.1226242 0.54380155
1.4743015 10.118637 0.30520773
-0.3154694 5.6989017 0.4575355
-0.5053085 8.718876 -0.23247808
-0.6943514 3.7840934 0.7373281
-0.54288894 3.1440332 -0.3918613
-1.370773 6.473742 1.3376029
2.2301087 7.6654086 -0.17574488
-0.7591143 12.45185 0.750767
-0.61265427 13.430374 0.8367379
-0.25003624 4.1554995 -0.5687312
0.41944277 2.7208414 -0.3336992
1.0522566 2.501364 0.981858
1.2580464 5.081407 -0.20134342
3.0760026 -4.5743 -0.18679704
-0.61044896 3.6525064 1.4537908
-1.2173578 3.6019826 1.1724478
1.1672091 4.1702466 1.3803535
-0.63196474 9.746737 0.58041495
0.32707703 6.9530487 0.32153618
0.5801293 8.62108 0.58640766
-1.3750513 3.7614365 1.4731617
-0.8271759 2.0718472 1.1275196
0.39354995 7.2748876 1.016838
1.0542526 9.427901 1.1655152
0.64469427 5.598082 0.96133125
-0.88839334 2.2807484 -0.214188
-0.6415874 9.487875 1.6221824
1.4945378 4.8059897 1.057899
0.16506448 6.5275774 -0.49860314
1.5886649 9.221983 1.2602378
0.9800216 3.5837069 1.3971174
-1.7161437 7.224267 -2.2213957
-2.2161975 -0.6906741 0.16357788
-2.2369752 -1.4707783 1.3426485
-0.2974446 6.4889364 1.7663324
0.8349639 6.7578135 -0.24689288
1.8159109 3.0697033 0.06539115
-1.912599 3.8448424 0.8113105
0.98588073 8.290065 1.3143667
-1.3654335 10.431559 1.3080555
-2.0689924 -3.1355364 1.2624729
2.284721 -1.861004 1.045389
-2.989246 -4.5802116 -0.35890755
0.77500045 4.234263 1.6070175
-1.9571404 2.758184 0.8319243
1.977543 2.2162254 0.7283862
0.011582883 9.682261 0.8919075
0.45212665 6.4029417 1.1512376
0.8583343 8.507724 1.642992
-1.9551888 4.254204 0.26831222
-1.0416086 8.75659 1.1902832
0.5167231 3.957907 -0.56425315
1.4919964 4.3423443 -0.11269153
-0.8725189 6.038772 0.8200488
0.662032 9.050737 -0.13062572
-0.501758 3.1602209 0.24489303
1.7569524 0.49384272 0.77290595
1.3032509 1.8566811 0.4505918
-0.92525196 8.191257 -3.8289838
-0.5977719 4.5199604 0.6654899
0.37882623 10.055438 0.4356024
1.6689159 4.152135 0.16074423
1.1352655 7.5483274 -0.023074005
1.1837466 1.3580688 -0.27370405
0.27976412 11.728141 0.2555529
-1.4487082 8.47177 -2.6293151
-1.6833599 10.308109 0.7824427
0.56944656 10.023979 0.10092543
2.2568603 9.327999 0.966963
2.0693214 -0.08349492 1.1486046
1.4081563 1.3206345 0.09255414
2.5096443 8.605873 0.4932788
-1.7657208 8.1899 0.80582714
-0.1340856 11.217699 0.35610977
-0.05543257 9.85486 1.5020555
-1.21238 8.079571 1.5180598
-0.16517845 5.9640903 1.4431372
-2.31836 9.621232 0.24065216
1.0679294 2.874616 0.52794063
1.2996008 4.113343 0.2450692
1.1646686 1.2299137 1.1208262
-0.6880659 7.834129 -2.935973
0.18726605 4.877392 1.1209002
-0.25865838 3.1425586 -0.15214536
-0.6484404 8.355711 -3.2384775
-0.2108759 3.4141927 0.23284337
-0.13909695 13.396217 0.28303787
-1.2171901 4.525617 -0.44203046
2.0869915 -1.2065881 1.3706229
-0.7461217 9.927692 1.1834466
-1.2997943 8.17842 -2.2800424
-1.987654 -4.206571 1.1067986
-0.6731769 6.5004067 1.8124931
-1.9043123 -0.84528464 1.1778194
1.4486872 3.59472 -0.31416485
-1.7382697 -1.5425615 0.9364809
2.0912924 -3.4454992 0.7857537
-2.3705246 9.208092 1.0750446
0.9731987 1.942992 0.102660574
0.056581136 7.0547667 1.0178279
1.6375008 5.0883355 0.7868667
-2.5697792 9.315702 0.31501043
-0.51090103 4.155026 0.09432047
2.6800432 -4.1785326 0.9269234
0.9988202 4.243811 0.5035292
0.0006655195 7.5098095 1.0665189
-1.7206773 3.061455 1.072453
1.9331267 2.619298 0.59390324
1.4749945 4.046894 1.1123041
0.82316357 4.2553277 1.1722511
-0.01573928 4.5534606 1.0717485
-1.5764234 7.898673 -2.1552415
0.64252067 7.7141447 -2.4270873
0.75527525 4.468969 0.78079545
-2.3068154 -0.34477946 1.1407368
-2.2408655 0.6935996 0.53800297
-0.072252095 5.3629284 0.45802298
-0.5057259 6.8499355 1.8390545
2.2178292 7.766214 0.35790345
2.5800526 -4.597653 -0.6834103
-0.73735374 5.070727 -0.18004689
-0.27858064 9.523501 0.66288304
-1.8236654 -0.72226113 0.23826846
-0.20501043 4.6344395 1.8544947
-2.677023 8.523176 0.81942964
1.4195236 0.45789805 0.17015474
-2.6498213 -4.5976424 0.112750456
-2.5204792 -4.216191 1.0728096
-0.802581 7.3197794 -3.4246294
-1.6091108 3.5640357 0.17684472
-0.87819254 7.7821817 1.5727841
-0.508315 12.46234 1.0918332
-1.4553518 3.9254405 0.05654821
1.6728249 1.2991904 0.43727532
-0.71605855 7.3098135 -2.2772222
-2.6132314 9.304116 0.71126425
-0.007918851 3.1745718 0.85565996
-2.9147496 7.356643 0.040369876
0.021859523 13.186248 0.64669335
-0.48274916 10.543507 0.19972491
1.8460319 1.8325189 0.031277243
1.1027827 5.982596 -0.07485053
-1.3458241 4.7302036 0.04702914
-1.511375 7.5279317 1.1366228
-1.6178803 9.372587 0.49410725
0.6071755 5.359414 0.2483181
-2.0496974 8.127957 -3.4491682
0.66310424 8.60518 1.296408
0.7658 3.320042 -0.5146078
-0.89291525 8.573546 0.49807113
0.31425607 13.054922 0.98005766
1.3932127 7.4438286 0.37015888
-0.25351015 5.3486366 1.1339394
0.2744414 7.482245 1.3813753
-0.12733616 4.9442973 0.4185634
-1.4203486 5.09304 1.368223
-0.9658313 5.8346844 1.1904093
0.81684214 0.7698814 0.75512195
2.0364332 8.344925 0.8927223
0.22282782 4.54346 -0.20647189
0.90059835 3.2704172 1.2745827
1.6049566 2.064866 0.22574492
-1.0627412 5.1061807 1.2076439
0.26312256 12.309773 -0.6061991
0.06545277 8.016511 0.54229206
1.8862454 3.037736 0.47217342
-1.2350007 2.0707347 0.9671367
0.40179577 3.1523113 -0.45854583
-0.0069057806 5.563982 1.387496
-0.1947202 11.794556 0.024324441
2.1325378 7.2963104 -0.7838901
1.1316829 5.893237 1.3876277
0.27755904 2.832008 1.3383863
-0.55116135 8.937849 0.51835835
-0.27234092 10.232983 1.4383844
-1.2430062 9.239041 0.66385543
-1.7314662 7.624995 -3.5704675
-0.015710965 8.608135 1.2821347
-1.2323228 10.779032 1.1564807
-1.1363124 5.2121916 0.71248895
1.0904893 9.03846 1.1023693
-0.6799616 10.463084 0.6111167
-0.512885 4.8577313 0.41794425
1.207559 2.6541061 0.2887695
-1.663981 4.193019 0.9368973
-0.17489925 6.493684 1.3810463
-2.0511396 8.200965 -3.05488
-1.5576959 -0.71477276 0.5484501
1.5719647 5.6248817 0.37968475
-0.9014542 8.057889 -2.2953746
1.4909931 0.1779819 1.3271686
1.1444991 2.626194 1.2908107
0.2068806 8.57116 1.7201164
2.209313 8.080028 0.16486391
-1.7487979 4.1812186 -0.107797794
-1.3880658 4.771012 1.4643127
-1.6508119 5.7259965 0.99774194
-0.40657526 8.003611 -3.2276416
1.8173306 3.6513877 0.6944751
0.7903227 2.7970989 0.74437624
-0.7732744 8.368172 0.13187139
-1.4673963 8.561882 -3.0826926
0.65715915 3.1617265 0.95350194
0.44729298 3.3815298 0.73291653
-2.08318 2.667281 0.2436432
-1.6973414 8.75997 0.33968112
-0.033598397 6.316142 0.73031795
1.4998221 1.2132658 0.79908735
2.3114963 9.452355 0.6158101
-2.072852 8.816916 0.34777346
2.159427 -0.78954875 0.6791693
-0.4460213 12.91315 -0.053199235
0.4002082 12.614515 -0.39641458
-0.46048182 4.529464 1.032372
1.211792 9.222603 1.4558878
-0.8591523 6.232302 1.2729232
0.2374691 7.127707 -0.036657717
-3.033615 7.2058296 -2.0105715
-0.27528974 12.114832 0.9706781
-0.25414184 7.2293267 1.7022027
1.2720851 7.141542 0.19861443
-0.35576448 7.267541 1.0667491
2.0950484 -2.058021 1.2991312
-0.3372985 9.686738 1.1694688
1.3847352 4.0794554 0.6363552
-1.0026798 4.055237 0.8877572
1.1212721 9.173406 0.3747861
-0.071848765 12.023372 -0.7316985
1.7533511 3.9017348 0.4162283
-2.3339732 8.462782 0.26932055
-0.709657 4.568304 1.3996819
-0.27747297 2.7651806 0.022299653
-1.8254421 5.3916917 0.452217
0.48358968 4.7011156 0.5216641
0.09039307 9.024641 0.16970521
0.46207893 12.495708 -0.0063973763
-0.5756339 6.12482 -0.48392847
-0.9017007 6.427797 0.78467345
1.45442 10.586163 1.0174465
0.27696854 7.993149 0.07557398
-0.105798885 5.383318 1.7840469
0.34367597 8.271997 0.7027405
0.4901776 3.8900216 1.6281163
-0.88675684 10.462023 0.25101414
-2.9694505 7.450639 -0.75756013
-1.3093048 6.678219 -3.58877
2.1585093 -4.2940702 1.4387923
-1.6819077 5.779724 0.14973123
0.038928453 12.821975 1.2169536
-1.5741072 1.8884233 0.069121845
1.2239858 4.8601875 0.19985422
-2.9511278 7.511252 0.42350098
2.4217918 9.0267 0.6008863
-1.1604477 3.3600771 -0.39494208
0.045236718 6.875455 0.65369827
-1.3958269 0.6433176 1.3587778
1.0741587 0.64099205 0.50344384
-0.11481777 11.115056 -0.063642666
-0.66263574 3.1696699 0.6635627
0.86955816 6.5299234 0.12687027
0.08823 5.983134 0.9937985
0.5827717 1.3495749 1.0662211
-0.73931515 7.1598268 0.8325829
0.38629925 10.556424 1.3712037
1.4257537 5.988911 0.21112464
-1.5611706 8.157515 0.2040399
-0.5994008 9.3075905 0.57980126
-2.128781 -0.24270765 1.4490763
2.5203323 7.466007 -0.23072898
0.44713864 4.2096233 -0.18665068
1.5403888 1.6606907 0.77614766
1.8302827 -1.1345462 1.054774
-1.7593217 8.435354 -2.8746412
2.1912758 -2.5944111 0.79266346
0.24010631 13.57338 0.51190984
1.8049875 9.9417095 0.68582606
-0.9522801 6.7256746 -2.5925498
-0.06528287 5.1712713 0.07317753
-1.9329915 -0.38353112 0.060903538
-0.18508404 4.6162987 -0.2872876
1.1908448 10.430316 0.43593857
-0.7151123 7.727229 -3.3999896
-1.3367833 7.529522 0.7743781
-0.571939 10.204327 0.06349727
-0.22730209 9.231255 0.33642423
-0.40590775 8.172377 0.44263732
-0.91838497 6.6202626 -3.01851
2.3678396 -3.4037366 0.94820696
-0.91645044 6.6493506 0.4332492
-0.95962316 3.7615006 -0.48390672
1.2855856 10.167409 1.0324105
1.4161386 8.863775 1.3205092
0.17442524 13.431932 0.90745294
-2.0867171 7.54285 -2.9137812
0.5232822 8.518791 0.08406541
1.1623547 8.783714 0.3868851
0.9142003 5.59293 0.3290037
0.93638986 6.7867126 0.57971054
1.1626315 0.2826224 0.48274618
-0.21765031 9.336716 1.0329633
-1.8676448 2.124415 -0.1310745
-2.142486 9.767106 0.6866159
-2.096466 -1.6632638 0.7898703
2.0524023 9.091619 0.62751234
-0.20981693 6.221779 1.1057423
-0.6913302 6.139163 0.12484196
1.7465332 0.1204491 0.96452683
-0.6767101 1.5230756 0.675905
0.14757709 7.7140245 -0.32133263
-2.5353425 6.8725805 -2.8723407
0.11862132 4.939005 -0.28300864
-2.0887833 3.4258008 0.5225699
1.460516 -0.25684562 1.3460953
0.729866 8.392758 0.92690486
-1.7283605 5.3806977 0.055790864
-1.4315046 8.108408 -2.7591205
-0.5837635 6.65664 1.4369102
1.5415711 1.8404007 1.0913486
-2.0910494 2.3907268 0.8835502
-2.14542 1.0026859 1.1950212
-2.1118746 2.0334108 0.97623783
-1.2232828 7.631898 1.5016061
1.1598154 1.8569573 0.8902144
-1.6561903 -1.0572577 1.5080111
1.092072 9.82842 1.1405275
-1.0727608 1.5878875 0.36552757
-2.5993068 -4.5973687 0.8736815
-0.56516045 6.0195656 1.0879219
-0.28589404 2.5328884 0.62918746
-0.2920439 4.5009017 1.3725988
-0.72099066 8.801706 0.15113136
2.0507739 -4.6094713 1.1939167
-1.4680281 1.2233845 0.89135796
1.129714 -0.16082714 0.21105812
-1.509193 7.7526507 -3.2112927
1.7441579 -1.3720816 1.4233979
2.287845 -2.3281019 1.0653253
-1.7247247 3.5910954 0.57746375
1.5026387 10.630598 0.6431156
-1.9316667 7.7879086 -3.2244284
-0.5296634 9.280147 1.2708734
-2.935264 6.9964886 -1.7903484
0.117328934 5.2522388 1.079819
-0.54174346 4.9364314 0.7921457
1.1121773 8.020267 0.5944923
-2.0106425 9.864841 0.23188509
-2.6512113 -4.3346686 -0.16581859
-1.6620677 6.652978 -2.7490997
2.1013422 -4.2561193 0.6272496
-0.9098593 3.0938287 -0.32520515
-1.6597868 1.5501056 1.1425999
-0.13638422 13.011749 0.21240675
-1.6586765 -1.092963 0.9214227
-0.061096217 6.1597133 1.727698
-2.1376593 8.847104 0.99686706
1.5457524 8.93458 0.9908485
1.233732 9.629237 0.83747244
-1.9319675 1.0282848 -0.04147133
0.19826438 5.2810917 0.7095312
-0.41681644 5.2181907 1.5274361
-0.983682 10.07888 0.10285884
1.7410629 3.4063094 -0.05990936
0.8495686 4.9076157 1.6117544
-1.5567439 7.179059 1.0822968
-2.9481153 7.4985523 -0.30528647
1.9452044 -1.5458915 1.0300645
-0.28344625 10.649609 0.5053174
-0.7261658 3.4614096 -0.48777795
-0.055175282 11.080077 0.9381162
0.23743443 5.629004 0.96769077
0.59741086 10.183856 1.5268741
0.8398733 8.014877 0.97729164
-0.083154075 12.903934 -0.24321687
-0.13516468 4.1526184 0.40825728
1.1552236 0.7663197 0.1781836
-0.47443315 4.316416 1.6543143
1.6150117 5.2269197 0.4316585
0.79613143 4.441362 -0.21433479
-0.26933092 12.222439 0.17888719
-0.5492001 8.368378 0.76511616
-2.1628492 8.456293 0.81486094
0.2557725 10.353483 0.1854216
-0.77255124 12.278059 0.2952048
0.19418657 11.02289 0.2107769
1.7447888 -1.7934468 1.3064055
-1.0885489 8.816938 0.16892715
-1.1620883 7.2005305 0.16841725
-1.150522 7.894399 0.8848626
-0.2194742 13.437352 0.95646363
-0.5987025 7.992156 1.7950261
-0.3950247 11.360606 0.035891574
0.043202568 6.3708262 0.1816104
-0.47590825 5.367218 0.73450345
0.16847911 10.21809 1.440608
0.36808515 10.675623 0.85268825
0.971433 3.8360612 0.22198537
0.15611076 6.501046 1.7641716
-0.15659189 10.331201 0.09785201
-0.711298 8.243357 -2.5799947
-0.23640923 6.580504 0.55006117
1.3946701 3.1255338 0.69979584
-0.5035424 8.564212 0.4367741
-1.6663326 6.8257413 0.8937375
-1.0839057 1.8432363 1.2818265
-0.006859206 2.8365943 0.6033247
-0.02352507 10.712202 0.17445526
-1.9431239 -1.2832115 1.1452225
-0.83259434 7.1978397 -3.9062428
-0.26603603 5.7848854 1.8087618
-0.6237991 4.167972 0.88162017
0.6052681 3.6064682 -0.26886413
0.16631651 7.5689697 -2.9969687
-1.8707002 10.654672 0.7449336
0.2623283 4.782223 0.1249016
-1.8394593 -0.41102576 1.2070302
1.6874466 10.268565 1.1404225
-0.16349666 7.6980944 -3.25296
0.90348125 10.187546 1.0665106
-0.3086323 10.868563 1.1818397
1.984082 8.484357 0.21700186
0.6198588 4.950896 0.19280797
1.3418069 4.4816217 0.43172318
0.7932958 4.215039 0.15667635
0.25602868 7.619766 0.6949958
-1.789084 9.117762 0.22891769
1.9449556 9.471568 1.1899626
0.92421633 7.4325266 0.27725443
0.94998896 7.9176517 -0.16281317
0.14705765 11.271339 0.6822808
-1.8458674 3.4730175 0.9526972
-2.8636737 -4.5770454 0.4692775
0.7564792 3.5787144 0.5308846
0.24641447 2.896866 0.26516166
-0.85945165 7.564792 0.83071965
0.44994798 12.502517 0.7147684
0.9155517 0.063131064 0.7708152
1.5422518 2.8501463 0.41628683
0.122288555 6.0871725 -0.5521369
-0.5254497 7.21831 -3.6806047
-1.1599137 8.240122 0.53618157
-2.1829133 -3.6216452 0.78380686
-1.431337 9.360739 0.011413546
0.4889617 3.7718115 0.8187298
-1.7671138 7.035169 -3.2136555
-1.41395 2.9849625 1.265071
0.84881276 3.544151 0.92447805
-1.4493302 -0.88116115 1.2101845
-0.39333227 9.931582 0.33291423
0.2780967 3.2377818 1.4728097
-0.7496644 7.347343 1.183431
-1.2886622 6.5668387 -2.8222952
1.558214 -0.34222695 0.37209636
1.3835068 -0.49264735 0.062137917
0.78709155 8.892705 0.2264933
-1.5469694 4.348429 0.18401374
1.1474336 3.4260502 0.53878057
1.4765882 7.3199387 -1.2699072
-1.7835187 1.7445087 -0.20980601
-1.5470877 3.112493 0.06078307
0.26900423 5.84591 1.3581454
-2.082911 -2.8611143 0.9480139
1.2045834 2.1755729 -0.3731545
-2.3956347 8.441204 1.0730668
1.0946336 1.1491274 0.13759726
-0.15866683 6.1225667 -0.19538647
2.206266 7.375496 0.1789872
-0.2227637 6.3392034 -0.5349837
0.2415445 4.3340864 0.16911086
1.78274 9.283537 0.3293342
-1.6473521 6.4506054 0.65502733
-0.11996146 5.5904956 0.11024029
-1.8921382 3.8884547 0.110199526
-0.89782345 13.038367 0.5571629
-0.6935846 4.1535425 -0.5521089
0.5372441 6.205363 -0.45279628
-3.0218897 -4.5559254 0.06069216
0.6840707 9.900166 1.2356503
1.0175594 3.157326 0.8513606
-1.864411 -2.1944802 1.326355
-1.2474772 3.978834 1.1504635
1.7924428 9.227864 0.8529989
-2.2573426 10.43337 0.6300269
-0.89925104 9.83523 1.5912999
-0.337107 6.4208026 0.16164944
-1.9036804 8.364488 0.44581622
-0.8794841 8.651434 1.5789456
1.121181 8.632005 1.0461843
-0.84553546 7.7236476 -2.5967503
0.41927642 7.8849807 0.39899498
0.2371727 2.1992261 0.47243634
-1.5421277 -1.3249402 1.2428604
-1.033975 10.263803 0.66527283
0.6779758 9.24828 0.9742444
1.5092369 9.595897 1.306852
-2.2185414 -0.6825449 1.3812548
2.3497279 -4.6037936 0.041986257
-0.8217372 12.741754 0.0090155285
-1.4572787 7.5840135 -2.8265557
1.7873473 0.9608718 0.5386788
0.09499109 10.078844 0.7553654
1.1260389 2.9984505 -0.4765449
2.495998 7.119361 0.379646
-0.32196417 3.975442 1.4829519
0.05719367 3.9770193 0.83408046
-0.034948222 10.106251 0.37777665
1.1684641 3.900184 -0.4713597
0.40539896 5.914748 0.6909135
1.7628225 8.466913 0.59913987
1.4347827 9.405735 0.1728645
0.05992932 4.981588 1.7996017
-0.52045804 11.975585 0.36780542
0.37756455 7.3910933 -2.5982351
-0.81781447 1.923152 -0.029432962
1.4527243 3.668213 0.70442826
-1.7179326 5.7699013 0.5713406
1.7852077 3.3051393 0.7535522
0.354718 8.84017 -0.16167375
2.3190064 8.471949 0.22358768
-0.061864536 8.852414 -0.18260786
-1.6990862 10.170076 0.29514602
1.6069242 2.4386673 0.3794129
-1.4751768 8.256111 1.2236946
-2.7699625 6.9118214 -2.6196728
-1.5722585 4.76757 0.37568545
-0.58672017 12.14648 0.7427109
-2.0914712 10.3856735 0.97403276
0.9814715 6.40371 0.46493742
2.1264145 -4.6715097 1.5745467
-1.1913992 8.623343 0.84109616
0.96888953 7.9746323 0.23859729
0.4586599 4.1454062 0.8880174
1.7245207 2.7235239 -0.1573239
0.9967742 2.446599 0.6423447
-0.41737372 5.573596 1.4853191
-0.024965664 4.333207 1.5763859
-1.1724094 8.953214 1.5525182
2.2250817 -0.85066247 1.1304228
1.7744187 -0.42165515 0.06844888
0.7263623 9.058297 1.3142478
-2.2921896 -3.9123254 0.43918023
-0.34610194 3.494301 -0.393174
-0.5890831 7.4207354 -0.30239907
-2.016389 7.4658256 -3.8319557
-2.3736968 -4.218874 1.4664282
-0.34493157 3.8132114 0.23242073
2.1271117 -3.596202 1.14114
-2.2437277 -2.1249793 1.2188326
0.038756505 6.932019 -0.4038381
-0.48099616 6.24865 1.4643322
0.28073242 13.011665 -0.4288329
1.1202077 7.613645 0.5793975
1.7480736 -0.33706582 1.049313
0.70434856 9.528742 1.3028094
0.56428003 12.8773365 0.7525729
-1.3490279 7.6026073 -4.099066
-1.5484893 -0.6169123 1.4731711
0.3425996 9.850322 1.5525466
1.8693959 2.680858 0.20114535
0.99169123 9.3178835 0.7364268
-1.3037009 8.266856 -3.7960749
-0.9736715 4.255255 1.2735953
-0.53794104 3.4821649 -0.037939154
