-2.5165586 -4.575115 -0.46049237
-1.6568189 9.435282 1.272952
-2.4110036 10.058769 0.84120584
-1.4009553 3.4806714 0.7911363
-0.15539876 6.9824166 -0.04354525
-0.39332107 7.677587 1.6603467
-2.5263977 7.0653906 -2.1685717
-0.43752006 8.011245 -3.3611124
-0.54892707 8.036569 -2.8706346
-1.4391708 9.688774 1.0764804
0.5705854 6.6448917 0.3657237
-0.7409041 3.9971533 1.6267108
2.4579806 -4.2228193 -0.052616194
1.2397118 8.225103 0.107662916
0.13485953 8.093798 -0.26074132
-0.32642028 5.023695 1.8641814
-1.3153207 1.2817181 -0.13677117
-2.144174 -3.2411652 0.9462271
-1.7743422 0.9194358 0.7858226
-0.6234972 5.582265 1.0868344
-1.463529 0.59796447 -0.0335508
0.86584574 6.455794 1.627919
1.5082889 8.164624 0.38358656
0.13137951 8.978557 1.670512
1.4802825 0.059629466 0.26160526
1.9828069 0.2668044 0.5335954
0.6655583 7.122018 0.45664388
-1.857957 3.3036854 -0.12150329
-0.96726686 9.195747 0.2749445
0.6651355 7.450539 0.67437816
0.90941095 8.30491 -0.12991983
0.4636421 9.522229 1.6315075
0.5516562 4.821354 0.9244252
1.5256896 0.31309488 0.5280049
2.3320696 -4.6118026 0.5636984
0.53077745 8.330073 1.6711811
-1.0466814 9.386008 1.6180754
-1.1737993 4.530447 0.29766205
1.4700781 3.9879193 -0.2549999
0.7868655 0.8480675 0.0017776187
1.9200149 9.551375 0.63653016
-1.354677 7.6544194 -4.0860586
0.31966946 8.830945 1.3232542
-0.23479953 4.298907 0.7416165
-0.09687298 10.692182 0.90369815
-0.35003585 12.590725 -0.2269367
-1.3044468 2.9477224 -0.34088483
-0.65591353 7.37304 -2.2058072
-1.8144488 9.516012 0.8667949
0.7442246 8.821765 0.9684006
2.4172258 -4.589742 -0.3436584
-0.62527955 13.50704 -0.14776722
-1.2941874 2.4849224 -0.3181487
-1.4363245 7.937671 0.5456558
-0.27174193 9.926723 -0.014954514
1.0339854 6.0186367 0.34695795
1.0855236 4.696901 -0.40808517
-1.0040761 7.2391725 -0.25879908
0.2837359 4.5410466 1.4116437
-0.48197713 13.610323 0.4514014
-2.4338198 8.81172 1.1460161
-0.1801606 7.694091 0.684057
-1.1593497 0.2563949 0.8737005
0.087985866 9.407709 0.20053835
-2.0145624 -0.34078977 0.88625586
-1.4866884 4.1298995 -0.34920442
3.031401 -4.587521 -0.58073896
-1.4025763 5.0847464 0.9362523
2.5895824 -4.647882 1.3879856
-2.2328036 -2.4542825 0.95073676
-0.6474692 12.89275 1.1481969
2.5804114 -4.605949 0.9617809
-0.716029 5.0512877 1.7993263
-0.46054813 12.141637 -0.6331231
0.5423619 2.1785595 1.2448876
-0.74130744 7.94835 0.82419443
-1.9446687 7.460144 -3.627166
0.831108 8.945158 1.6499045
-0.6570164 5.963848 0.45913604
-0.8474628 5.4327307 1.710056
1.539351 8.240547 1.0783256
-1.4595176 5.1698637 0.18268652
1.055026 7.4202266 1.2871842
1.7424817 -0.96432173 0.67962736
-0.58218646 6.9878287 -2.4168487
-1.6119305 6.75975 -3.1501095
-2.0858364 9.560489 1.1875256
0.019825177 2.5553517 0.3147315
0.5074321 5.2098823 0.96220523
1.3481627 3.3835707 0.024764435
1.6995448 4.333357 0.52790517
-1.0487725 4.7355385 1.6708803
-0.03307455 5.1500225 1.4204478
-1.8308406 9.4569845 0.18028192
-1.3775303 9.058151 0.37945455
-0.28228328 7.668516 -0.34601521
0.41021374 4.4988155 0.9951662
2.1559649 -4.576165 0.92791224
-0.7726544 7.8934274 -4.141985
0.012234977 8.853009 0.98124003
-0.49193534 7.1753874 0.050104715
0.5194085 6.722822 1.6722697
1.1103776 9.991342 0.6804053
-0.6298924 2.8316538 1.0988737
-2.151154 -4.267369 0.64908946
-1.1540803 7.611331 0.17578882
2.4838147 -4.2214966 1.2568853
0.1047919 5.8168483 -0.24393152
-1.5986733 -0.057806402 0.16161847
-1.9006622 7.332375 -2.8028352
-2.322421 -4.246273 0.18465854
0.39217228 12.201484 -0.24126415
1.1304978 6.9242125 0.8847236
-0.24249214 4.171934 1.1236035
1.4338161 1.6932726 0.09319095
0.23350391 5.0809417 0.33630058
-0.34457412 3.5117037 1.2683648
-1.4852403 0.5519808 0.52316004
2.0749872 1.5198566 0.5843171
1.9831759 9.057478 1.1479383
-1.585731 7.840805 0.9195959
-0.7126486 10.230976 1.5082247
2.8348663 -4.2822556 0.058689024
0.14773622 9.969093 0.045146253
-1.5854536 0.9712113 -0.20551662
-0.18173549 5.1092014 0.7695045
2.8578286 -4.565401 -0.89270097
-1.3334503 6.642732 -3.3366978
-0.3647471 10.255472 0.53756523
-0.66045034 7.5767746 1.8225389
-0.6178173 7.914529 -3.699137
1.897665 1.7884722 0.8388514
-1.1472882 9.027981 1.0044178
-1.3823549 7.609363 -2.6979928
-1.7241951 7.983921 -2.8085613
0.63481903 2.5840352 1.3272442
-1.1764 8.419694 0.19976494
0.47090653 4.1791334 1.3129263
-0.5352043 11.735565 -0.13788572
0.90372396 1.0352253 0.44404912
1.4192328 -1.0936182 1.2693148
0.071969524 12.704917 -0.581618
-0.8635126 8.112154 -3.5119216
-0.5287811 10.718846 0.885734
-0.17970157 12.815996 0.5350983
-1.8901882 8.002641 -3.1702
0.4965694 7.855591 -0.24352811
0.8940643 4.638025 0.38763484
0.82829994 1.9201704 1.2832996
-0.97959644 0.9054467 0.35875234
2.1341994 0.6482698 0.7100024
2.3423977 7.477538 0.57563543
-2.0483112 3.1382005 0.2099914
1.0433955 2.766059 -0.12265121
-1.4230456 10.063582 0.62805474
1.6335489 -1.8074284 0.9356509
0.41402644 7.6574116 1.0298089
-0.8106121 10.919313 1.1656117
-0.3517779 3.1732607 1.0378683
-1.3015131 -0.4252485 0.66963327
1.3734673 6.665856 0.62687963
0.034152105 7.432302 -3.629021
1.6711533 9.598103 0.9086642
0.24620599 13.448531 -0.2979891
1.3771604 5.2244425 1.1174208
-1.3158463 10.473795 0.8713104
-2.68858 8.169907 0.6670929
-1.8297707 4.9580145 0.6965799
-0.94317806 6.975027 1.2768804
0.6942656 7.4609337 -2.2432842
-0.1357472 2.9711225 0.22797614
-0.203675 4.697874 0.7279637
1.1337872 8.389912 0.5372278
-0.67978936 7.004749 -3.4083738
-1.8181055 -1.9298565 0.99488646
-0.55605143 12.864866 0.3795495
-1.1641448 1.4126086 1.1141455
-1.1598433 6.9624605 -3.013251
-0.79181725 4.9838166 1.4406242
1.1926285 0.42741796 1.2370945
1.9282378 10.027639 0.3265966
2.6223166 -3.9239454 0.63714546
1.3849717 3.6773849 0.30435112
-0.9451109 5.871295 0.11998225
1.241576 1.3950036 0.4547355
1.4064139 -0.42550156 0.7311589
-0.26874956 5.7694607 1.109797
1.5229661 5.943357 0.63736707
1.8989629 8.876353 0.29315898
-1.5417087 -0.14020696 1.4361109
0.60012853 2.197589 0.57239217
0.2929238 4.768135 -0.63298905
-0.6196065 6.717197 0.69355917
-1.7411027 0.45031682 1.5222943
1.6586701 -1.4162161 0.78947467
0.6821684 7.387233 1.2783369
-0.81056046 7.853429 0.15313867
3.003546 -4.6007752 0.21989873
-1.0801514 9.867144 0.46758255
-1.6765536 2.123173 0.32464632
-0.10705001 10.539449 1.3378391
0.5329497 1.9359248 -0.109476745
-1.4132732 5.5173597 0.7268611
-0.32306445 7.0448613 0.42657036
0.39828748 1.4689577 0.40338728
0.73042536 10.530944 0.93121123
-1.391129 1.6997573 0.9010212
0.8417448 2.0682502 -0.30460545
-0.8311737 6.507177 0.04948655
2.7407792 -4.3684683 -0.37616053
0.099414974 3.9818933 1.4866732
-0.32169646 6.9615617 0.8059011
0.036310032 12.154586 -0.09609236
0.5470134 1.5461744 0.03631877
-0.48555893 6.33313 -0.18044414
-1.6649743 1.2326676 0.18679172
0.60536695 13.07881 0.33083445
0.39840385 5.0112805 1.3622606
1.1283922 0.9643781 -0.23656338
0.69191307 10.3551855 0.29898888
-0.12125125 13.641632 0.69888955
-1.7414492 2.3077154 1.00272
-1.4383821 1.8078079 0.5000065
0.7728268 9.375444 0.34187502
-1.1995262 6.230153 1.0172989
-0.87658685 7.3006706 -3.1429105
-2.9244852 7.171809 -1.1460924
0.36021456 5.4487314 1.3107114
-1.1908896 0.6016964 0.2635281
-0.9043622 7.208591 -4.1535454
-0.5205265 6.767638 0.27457342
0.8633213 4.198515 -0.52076256
-0.22188061 7.7751245 1.2418704
1.151953 8.645748 0.017542783
0.8600987 6.32413 -0.22749542
1.0126985 4.524899 1.5087658
-1.2957393 4.311401 0.7213059
0.7817922 3.1791723 0.5161274
0.07074527 5.76869 0.50984293
0.0056339344 4.199172 -0.26805294
0.3102393 6.288943 0.8274843
0.57949543 3.0848346 1.3493232
-1.2413026 3.3325815 1.4521817
-1.3394768 3.4885156 -0.047904026
1.19274 7.812607 0.91793084
-0.07042598 3.689686 0.47566608
-1.1398349 8.299218 -2.5186646
0.22008422 7.719797 1.7564032
0.39698184 5.5890465 -0.11734479
0.6119063 7.7895947 1.3051513
0.24569482 13.57473 0.12099053
-0.016874088 6.997037 -3.0738635
1.8095491 -0.055443376 1.4279969
-0.48027915 6.137164 1.8569107
-1.185158 5.4762855 1.0668752
-1.6937848 1.3439558 -0.22236024
-1.2354823 9.513345 0.35134602
1.6800056 8.601121 1.0511116
-2.9282856 7.8271847 0.47396922
-0.810389 11.057097 0.7304952
0.6291935 4.6196656 1.3252858
-2.1348581 0.7191179 0.9385235
-0.54042107 5.6830544 0.120642476
-1.296659 5.8560514 0.87489897
2.265544 -1.3558425 1.1569402
-0.65228516 2.0200071 0.8178043
-0.21010962 6.869172 1.2317587
-0.8001703 5.228494 0.17158757
-0.7160986 8.237506 -3.1617556
-0.77062464 7.4654117 0.38428432
-1.2613523 2.647051 1.3340127
-1.6079072 7.265278 -2.528018
-0.6415236 9.598532 0.9432975
0.12422745 10.371532 1.0337481
-1.8175843 4.597952 0.8671173
-0.353952 7.0772314 -0.39585128
0.04126254 10.446926 0.57918006
-0.7753179 6.922332 -3.0363681
-1.5513989 3.3369331 -0.33482045
-1.7016909 1.9340239 1.0994207
-2.3764372 -0.6711424 0.9480872
-1.0783409 1.0102614 1.1672728
0.17784908 9.291064 0.93884486
-0.39155158 10.91811 0.16699141
0.6606614 7.7080607 0.09915588
0.07093487 13.220125 -0.059233855
-2.15888 2.964316 0.53297347
-0.5829705 8.381152 -3.6991396
-1.5257242 7.765487 0.13590771
-1.3686726 4.921343 -0.3319047
-0.42589855 12.447664 0.4900204
1.2479883 3.4504445 0.9073524
-2.0040765 2.483022 -0.07440118
-0.99963915 3.9219627 0.53051627
1.2142284 5.690254 0.5381458
-1.0333279 9.851788 0.8570394
-1.1350217 8.355827 1.2017581
0.032809697 3.3929229 -0.36715236
-0.81992406 13.3765 0.5433615
-1.0248743 5.7774987 1.5945122
0.8191269 1.6472036 -0.22552371
-0.030027295 9.127299 1.3106706
-1.0929399 4.701015 1.2577986
-1.7527633 7.5735807 0.66596943
1.1489394 8.257391 0.933339
-1.2170215 6.10496 1.4470683
-1.0175424 4.6829624 -0.13978654
0.6271088 8.186758 1.3136678
0.22028865 13.178244 0.31988785
-0.44534504 4.987113 0.051862206
-1.1056238 9.843529 1.2366081
-1.3083717 6.5131445 0.43002832
0.82345694 9.73504 0.08258748
1.503182 3.1542008 -0.32134712
-1.3427628 8.201019 0.87675834
0.377117 10.652672 0.41890687
0.5390399 1.1178454 0.23259881
-1.5161182 1.2613349 1.3444644
2.3090577 8.416218 1.0423717
-0.046124503 9.611241 -0.07145679
1.0585088 7.1682215 0.5486784
-0.05681133 7.561743 1.5686512
2.0442677 -0.40694255 0.46167168
2.238593 -1.5725031 0.7623992
1.4205234 2.9298902 0.01849203
-2.526953 9.641177 0.6019148
-1.3666452 10.007764 0.22570597
-0.9042567 7.336923 1.562817
-0.8575663 3.8410227 1.1980188
-2.248022 0.38258594 0.33037135
-0.014641006 12.432694 0.5429509
-0.004620676 9.751205 0.40184245
-2.0979168 7.6793194 -2.9339538
-1.5427845 0.298628 0.92368996
-0.30151168 6.7088504 -0.4969453
-0.5644115 2.35749 -0.076389454
-1.9870803 0.34812686 1.1197569
0.27350345 7.541046 0.00044833822
-0.6832627 10.082106 0.82655215
-1.7558419 0.9803097 1.2068294
-2.6761403 7.682588 0.15408395
1.0566003 7.018581 1.2805301
-0.44931534 11.792001 0.69109887
0.68052214 5.25854 1.6911532
-0.48172045 2.829059 0.41130534
0.17951249 7.2500052 -2.8546212
-0.38987923 2.4522614 0.24298425
1.9651634 1.4284968 0.27390638
0.3296988 1.8648152 0.24214423
2.3630998 9.002866 0.9320837
-0.15342417 4.8836794 -0.64255583
1.7151142 2.1170127 0.9898387
-0.65797544 7.429949 -2.5646305
-2.9777899 7.6363897 -0.44930148
-1.4290743 7.564088 0.42289612
-0.6781317 12.041156 -0.354795
-0.9369132 10.631199 0.90543044
-1.3859166 -0.38881963 1.174119
1.8961222 7.5289288 -0.56228757
1.5598428 0.57537794 1.130627
-0.50224936 7.371456 0.67405945
1.0097826 7.153986 -0.12982886
0.28055313 5.3139906 1.6811291
0.62466574 8.124096 0.13215183
-0.001949949 4.7587795 1.4604142
-2.1204631 0.71043974 0.13640165
-1.07761 2.2943769 1.3178627
-2.0624957 -0.771705 0.9642061
-1.0247107 3.5969436 0.89578176
-0.28030863 8.068266 0.8203747
-0.35961092 8.516608 1.0713184
-1.6617366 10.585863 1.098528
-0.48595908 7.5467362 -3.2345002
0.38996527 8.9526415 0.927764
2.0884786 -3.82232 0.76082134
0.698702 3.8282692 1.1651536
0.46838984 6.3728447 0.065114446
-2.0028744 3.5430427 0.170055
-3.0934284 7.3261604 -0.5012822
-1.8632436 1.2604231 0.50519764
0.9576127 8.726183 0.67313784
0.9229675 5.5856266 1.591886
1.0985224 0.03844258 1.0842762
-1.154157 3.096149 0.029799642
-1.3633296 6.8060703 1.1101015
-1.9213961 10.460428 0.46893772
-1.9678518 7.1388793 -3.4706142
0.08632848 9.565703 1.2735006
-0.68238175 12.803041 -0.3602999
-1.5788947 0.8569296 0.20021895
-1.0026538 6.6052113 1.149588
0.117108166 5.7104373 1.7112099
0.9140966 7.2512875 1.6180559
1.9854329 7.3135757 -0.18841559
1.2243067 -0.09374386 0.58533597
-0.11778814 11.652108 -0.69474727
-0.13357651 3.60844 -0.092795774
-0.23162916 6.141575 0.4205294
0.2754779 7.231748 0.63784856
1.2202994 5.26802 0.7203917
-1.955816 8.624137 0.74158084
-0.46216646 13.146652 -0.42866167
-1.4628454 5.547636 0.34272492
0.84267473 2.9890313 0.11692096
1.459761 2.7484322 1.1087221
-0.4951101 7.627503 0.037024662
0.47900409 13.245336 -0.057778448
-0.17034891 8.341195 1.6159153
-1.573505 3.3879719 1.221163
1.2538484 9.775143 0.17551304
1.9112363 -0.77292097 0.33745992
-0.85978043 6.945801 0.07780392
-0.5369586 11.379033 0.6319017
-2.0314026 9.42414 0.4974885
-2.6011403 8.937653 0.8423771
0.28932697 7.3231363 -0.36526906
1.0068362 7.8338833 1.315311
-0.33350053 7.4374857 0.33560464
-0.6927336 4.805224 1.1072276
0.99484354 5.2501526 0.05149154
-1.1121261 2.6300876 0.57666713
-0.89956665 12.652121 0.4069373
-1.1091006 4.1557937 -0.45348513
1.1815618 3.099056 0.2676182
0.3474432 1.8290619 0.6326217
0.8315933 7.616769 0.9710725
-2.6203756 7.0631 -1.3468835
2.2700162 -3.943029 0.37881297
-1.7380841 7.2093124 0.7763238
2.6783404 7.398334 0.39574605
-0.8454274 1.2693001 0.9102108
-2.4652045 -4.6086555 1.3475943
1.483378 6.308555 0.83457506
-1.6729043 -0.6219129 0.9337449
-0.26558366 12.486632 0.84425527
0.8669306 2.866698 1.1479695
-2.925417 7.118783 -0.2301215
-1.455349 8.892394 0.80499876
0.7310708 9.828362 0.48592415
-2.149445 10.205968 0.33179963
0.10481678 9.399921 1.6344393
-0.76595616 8.432398 1.2085724
-2.523769 -3.9097948 0.7402935
-1.5494097 6.437772 0.9848224
1.5273564 5.5070367 0.8129198
0.05568079 10.881958 0.5898711
-0.92670804 3.4993098 -0.1087107
0.4255628 2.617265 0.60194904
-1.8607075 -1.427478 1.5074537
-0.32065335 13.570291 -0.35152915
2.037285 10.290838 0.5795979
-1.1111107 5.79721 0.5001354
1.0162855 0.7543909 1.1397723
0.17454515 4.860485 0.7222847
-1.3998314 7.863664 1.2591137
-2.6022263 7.099064 -0.9343257
1.444794 0.9069823 0.121626906
-0.13246405 8.802667 0.44014657
0.28069857 2.4592342 1.1391227
-0.95203805 9.140493 1.300921
0.010030878 3.973809 0.08307851
-0.72932005 5.3333187 -0.48272166
-1.7541732 9.811726 1.2821791
-0.122397505 8.180041 1.2487192
-0.84196335 4.334089 -0.17212643
0.23938847 12.898566 0.5160038
2.5886579 7.1925974 0.04859443
-2.2506614 -0.013541218 0.13121885
0.86167955 8.0700865 1.6399114
0.60906875 2.870428 0.35210145
0.46302617 5.5281005 0.578169
-0.61610997 3.198195 1.2965556
-0.6701208 8.543852 -3.389165
-0.6493181 5.8613353 1.4113812
0.61329085 6.5297513 0.7492748
-0.25288638 7.8467402 0.31275868
-1.9751508 4.638095 0.47736377
2.2427902 7.935938 0.7463267
1.9075822 8.803806 0.79591626
1.2679709 3.7865741 1.3018042
-0.17729802 11.926212 -0.33609536
-1.762023 9.901223 0.91604465
-0.13433364 5.55286 0.8097866
1.0577364 1.5915576 0.09620255
-0.37009165 2.8742268 0.80656666
-1.1586633 0.5956276 1.0368063
1.4488261 7.059462 0.63138795
-1.3247542 7.1922913 -3.669753
-0.56061304 7.120685 -2.795531
0.20778808 7.9824667 -3.0497468
1.8554734 1.3597884 0.8220677
-0.52475625 3.5341125 0.47392854
-0.61685824 9.121671 -0.18329035
0.57061464 7.1044 1.6500014
-0.18917607 12.071653 0.6156304
0.13573895 12.405487 0.20860124
0.7440904 5.697583 1.2882202
-2.0759118 -1.0778296 1.5243602
-0.32402045 6.5888805 0.96496636
-0.07209786 8.203666 0.12389933
-1.3350972 7.257843 -2.8290777
-0.5699109 8.775188 1.7062532
0.14445737 5.9466605 0.12715776
-0.78667426 9.177364 0.9393092
-1.1638385 8.023695 0.18972594
-1.7023108 0.6088233 1.0804265
-1.8397164 4.623979 0.091764584
0.18686424 8.662684 0.63243836
0.56430227 12.889007 -0.05657532
-1.4169518 6.8040705 -3.7042708
-0.80491304 5.501945 -0.09145238
-1.9205515 1.3225987 1.298492
-1.7521534 2.8427546 0.4072585
-2.770205 8.507015 0.49473763
1.2034588 4.8682833 1.357517
0.42668003 10.336052 0.69201154
1.8263226 10.4843445 0.81582814
-3.08764 7.5496035 0.27025113
-1.0096987 4.864779 0.87397444
1.0053964 10.077179 0.26452166
-1.9886053 -1.0537622 0.7252907
1.2722237 6.7576084 0.31141827
1.1393913 10.788662 0.7735454
0.72637403 8.2114935 0.53635883
1.2812202 3.411232 1.2605981
1.5476018 3.1680112 1.0468841
0.004713348 8.36879 0.9191474
-0.5844801 7.5244145 -4.189101
-2.2473676 1.8355763 0.46358082
-2.8165035 -4.5434628 -0.7154121
-0.75517786 9.087365 1.6572614
-2.1573195 -2.4507523 1.3207997
1.0111072 10.086351 1.4817574
-2.0907798 3.8637202 0.44743305
-0.31013903 12.842981 1.2469515
0.9504255 0.4163575 0.884518
-1.9914291 -3.9282398 0.8287811
1.3920915 4.715529 -0.18317522
-3.0138557 7.4455056 -0.86907554
-2.1721392 1.4808322 0.3049206
-1.5506946 3.153005 0.72473776
0.60445505 4.5616894 1.7214344
-0.8966762 3.4085443 1.3421834
-2.3002644 -0.0051663173 0.8960773
-0.48170045 8.478133 1.4224565
2.1720788 8.630206 0.60134685
0.9022638 5.0793447 -0.40523675
-1.2763431 6.6063957 0.766593
-0.11163423 13.766658 0.31119797
1.1224372 4.231427 0.91958404
0.025344392 5.6370416 -0.61118674
-1.6456296 2.5675886 0.74280596
1.1530106 4.946596 0.9623817
1.491107 10.2204485 0.7161721
-0.7712039 5.5669885 0.409681
1.0770307 8.772503 1.4254328
-1.5448852 8.577729 0.15698758
-0.92885363 8.299353 0.8657567
-0.44006163 2.1956313 0.5528776
-1.1915029 5.5545287 0.037862714
0.37066773 2.995834 0.6345767
-0.61351055 6.3908463 0.41403177
1.6136463 8.924904 0.5445455
0.20530213 3.6018221 1.5035837
0.5902029 9.997671 0.8559285
-0.09760394 7.311948 0.6922057
0.07256593 7.9259043 0.9391333
-1.9234178 -0.7165702 1.6139781
-1.185336 0.24460365 0.4956715
0.08711285 11.450923 0.0365187
-0.98680836 3.5050871 0.5815935
1.0406373 7.4862633 -1.9989891
-0.76008606 7.8288193 -2.6203687
0.27752015 9.943543 1.138051
-1.4862107 5.301754 -0.20862313
1.4536815 9.78443 0.56365156
0.49294075 5.9713717 1.0400864
0.69791436 5.314771 1.3312124
-1.0338761 10.255079 1.1129179
1.193726 -0.8274055 0.28797323
-2.1432745 -4.5891013 0.94157064
-0.25959668 12.99295 0.9043952
-1.0645483 6.791049 -0.24055369
0.070790485 5.1863265 -0.62974745
0.5774415 1.1355354 0.6559823
0.22375491 8.465511 -0.19391136
-1.5411025 2.1124935 -0.2837172
1.2926446 4.905295 0.5553599
0.2235856 6.559102 0.5141327
0.23996355 9.054168 0.56567913
0.47961318 5.993547 -0.11209446
1.9843489 1.8839 0.39665142
-1.9666241 6.9283695 -3.1386669
1.783944 1.0728528 1.1243247
0.89979386 7.791319 -2.1070595
0.12704355 4.210902 1.1454536
0.4492482 9.206828 0.23403238
0.8698575 -0.75022453 0.5847772
0.49314398 13.415973 0.30208373
2.0644233 -4.1422653 1.0652294
-0.7239385 2.4386575 1.1924641
0.6217716 7.022696 1.2698889
1.9010267 7.2399216 -0.996112
-0.48700786 2.427038 0.90803283
-1.0372721 2.727406 1.0075903
0.9095637 4.826324 -0.05736857
-0.8827643 8.22206 1.5701059
1.0753167 9.601441 0.45965102
-0.14542796 7.961966 1.6162606
-0.1969632 7.0062118 -2.6856112
0.29638663 12.620986 1.0695218
0.043626167 8.600045 0.14887536
1.0709333 3.8087332 0.58185494
1.2324545 5.674591 0.06543185
-1.8556616 0.5008845 0.6759698
-1.0777844 7.3074822 0.5782063
0.45764732 4.407916 -0.53220004
-0.4498297 10.05582 1.1512104
-1.8757305 2.4143856 0.5268088
0.9166962 2.3021505 1.3080335
1.1459213 0.18518272 0.041606
2.0124235 7.592759 -0.88708997
-2.305773 0.015918095 0.51320916
-2.2223895 2.5689275 0.5825406
1.2247765 1.4995995 0.8288579
-1.1563504 4.065595 1.5682455
0.6110148 3.6316411 0.113409095
-0.53985924 3.8283994 -0.54462296
-0.039738778 13.6481695 -0.12673129
-0.7194053 3.0426102 -0.014311682
1.6759396 -0.9213029 1.4548069
-3.1235838 7.451147 -0.1066712
-2.0731907 -1.8042582 1.4181716
-1.5868927 6.1620793 -0.05497765
-0.06616373 3.8092403 -0.47549787
1.493967 8.565546 0.28782433
-1.2941251 4.722233 0.6347477
2.0088544 -1.2639953 0.6360846
1.1101308 6.6161304 1.3169806
-1.6716119 4.00693 0.46006277
-1.4983759 9.012211 1.2711117
1.6833547 9.709325 0.27267182
-0.53757554 8.118545 1.1069759
0.3722062 9.242971 1.2992189
-1.2963798 8.307201 -3.7896652
0.6007511 3.4964018 1.4964131
-1.1474102 9.711117 0.037779924
2.2103143 -2.0705473 0.7593203
0.41019347 2.52212 0.2363403
-1.0353284 7.496839 -2.5443273
-0.11049514 4.766372 0.047689408
-1.088701 10.182457 1.5126194
0.0588056 7.6137395 0.33094236
0.5777831 12.737552 0.31453633
0.611393 7.2558427 0.060533494
1.7243704 4.003261 0.8123179
-1.2497226 8.042276 -3.573921
1.2281756 2.2665954 0.33015668
-0.8195791 13.150343 0.9161905
-1.3894137 10.096376 1.0172635
-0.95830667 7.1630807 -2.719405
-1.4832374 2.3375814 1.2915825
-1.095034 3.0989492 0.66447383
-0.20495038 11.469952 0.788482
1.2318784 6.228099 1.1309654
-0.2932193 13.289884 -0.07508948
1.0791119 9.420255 0.044271212
0.8897312 1.5897019 1.1135094
0.91765356 5.0654025 0.38848805
-1.4071708 1.9948977 1.3417917
-0.65661836 3.4724414 0.9774035
0.94389385 4.611071 1.0872068
0.72484714 1.7920521 0.767011
-1.9301175 3.1571276 0.72866714
0.8377548 5.3724003 0.64314634
1.0298457 10.72184 1.1546317
-2.6228375 7.1602783 -0.46728277
-2.292346 2.1822388 0.6638727
-0.91042876 4.478109 0.9596761
-1.0384777 7.7772055 0.5283142
1.1445134 6.752327 -0.046784505
-1.5848278 4.5542383 -0.23934719
0.6892042 9.378639 -0.058779825
1.3689113 7.58587 1.1925086
1.5505708 0.6760194 0.43653604
-0.47052115 5.421481 1.8705516
-1.9730093 -0.6285457 0.59067446
0.061578818 4.584289 0.40037787
0.8810179 8.47168 0.26750377
0.3852998 8.805391 0.27675214
0.2293023 7.0509443 1.3846056
-0.26469386 5.9814515 0.10828051
-0.3424689 9.552282 0.24501161
1.5148935 7.4607773 0.81037676
0.50029564 2.797825 0.9970828
0.3137843 5.1768503 -0.08163967
-0.3410175 8.892676 0.118679084
-1.4765371 2.7380402 0.019695312
1.0761081 6.4860573 0.8601863
-0.9603911 5.5721583 0.76510835
-1.2432401 5.988885 -0.16041565
0.20389561 7.300174 1.7524754
0.46910197 9.145596 1.6738863
1.3167218 8.014335 1.2783517
0.80527943 9.66415 0.8476363
-0.13808875 12.346554 -0.43242788
1.504418 0.2786218 -0.18867494
-0.96475136 8.49421 -0.20198877
0.40486452 9.642723 0.3235469
-1.3334527 7.9287605 -2.9610305
-1.7250173 9.780491 0.53642386
-0.31442878 9.912197 0.7779753
-0.62738657 7.8790216 -0.24512105
1.0485916 9.039304 -0.02587392
-0.17256097 12.645347 0.16005662
-0.24100693 4.8987455 1.1170541
-0.09441851 7.251596 1.339997
-0.41798368 4.5720434 -0.62556237
-1.9232502 -4.6104765 1.3674395
-1.5699737 9.724114 0.1705284
-0.022892565 13.200937 1.1717933
-0.7356966 2.6477325 0.11952106
-1.2442536 4.3211913 -0.06270217
-1.1205893 10.726934 0.54782176
-1.0498995 6.960187 -3.4282868
-1.737416 3.7290936 -0.20545699
-1.849113 9.074054 0.68858635
1.4721923 9.888706 0.97727054
-0.75042117 7.068351 0.4374719
-1.4551009 2.506364 0.418118
0.48717344 3.2717397 0.2577354
0.14724588 2.7766333 0.9228409
0.74701756 6.187116 0.7909915
-0.94054013 4.1105623 0.16138735
-0.9617459 8.963443 0.59542114
-0.79759085 13.138227 -0.12472213
-1.4223908 0.976415 0.55094296
-1.1299723 5.1014743 -0.03446741
1.5912023 4.5754027 0.14383668
-1.701156 0.2777856 -0.11247987
-0.71036047 7.803586 -2.2310865
1.3524184 6.309578 0.43437013
-0.40496585 4.854856 1.496815
0.43705893 1.4930226 0.7629763
0.028169151 3.4345167 1.1755456
-0.95794874 7.6682396 -0.21243852
0.49094307 10.288083 1.1247042
-0.4070051 6.876007 -3.74854
0.22610411 5.4946523 0.22539675
0.7675594 10.941941 0.871157
1.1216376 2.524467 -0.42033777
1.9379737 -0.08162485 0.2988589
-1.0272682 0.95801115 0.7515925
-1.6498035 2.918544 -0.30542547
1.611541 -0.8156353 0.07351903
-2.657414 8.52158 0.1373502
-0.7601929 12.405742 -0.16056569
-0.94549656 8.008391 1.2065909
0.5312092 7.9107914 1.657268
-0.99338746 2.731436 -0.23073973
-0.578844 1.8089876 0.49374062
-2.9233088 7.8015223 -0.010008182
-2.2044446 0.33719006 0.7313812
-0.06020929 7.0490413 -3.4717538
0.25953153 12.127593 0.562907
0.843427 9.354881 1.6245153
1.7346561 7.567998 -1.176724
-0.4519206 7.661792 0.9498424
0.5296517 5.667551 1.6545652
-0.7926702 13.476703 0.17013006
0.028716568 7.207546 0.295227
-1.0207552 3.0223553 1.3757247
0.13820942 2.6149957 -0.07621468
1.7402153 1.4069666 -0.039991785
-0.43364173 5.372381 -0.14174414
-1.3272685 7.8745193 -0.17146906
-1.7224607 -1.71012 1.2858436
-1.3483154 7.2596846 -4.067444
2.1838894 9.230749 0.26277488
-0.26021507 5.911374 -0.57971936
-0.6577295 7.5314684 -2.911876
0.65406436 3.9571004 0.45479488
1.2307315 5.312868 0.35129768
2.156946 9.738873 0.9702371
1.9497664 -1.9587297 1.0393429
0.20251459 6.91968 1.7535388
0.5106264 8.747686 1.6620444
1.4042195 2.7658048 -0.3688482
2.2377493 -2.9480515 0.84424335
-1.8017387 1.6678543 0.33513078
-1.8965466 7.583866 -3.2694502
-1.2640942 7.226791 1.4348868
-1.4672416 0.2847625 1.3482614
0.085726894 12.257577 0.9584714
-0.82845485 7.1597795 -3.7149844
2.0976782 9.62864 0.31175068
-1.1330816 7.2267904 1.031291
-0.0017537805 11.992472 0.29836717
-1.4023488 0.26077944 0.17412516
-0.7736471 7.56715 -3.4825199
2.2745328 7.155128 -0.35494208
1.1715763 1.7807983 -0.3134907
-2.3977885 8.243497 0.45151672
-1.2851768 8.699555 0.49315238
0.17662139 2.4117665 0.74977094
0.60937697 6.0784464 1.3734365
-1.0083777 3.7152424 1.5507591
0.25978836 8.347452 1.3682435
-1.0601953 1.8461586 0.6977476
1.9418788 0.676536 0.36815256
0.91781723 6.8480973 1.6131802
2.519738 8.630793 0.8413876
-1.3238319 9.297968 1.3959469
0.78503466 10.665428 0.5631569
-1.3599707 7.0699115 0.77096635
-0.7541451 8.72695 0.8818816
-1.7208371 3.2522383 0.39430037
-1.1986895 6.9369664 0.44592848
2.6341698 -4.0365195 0.2569332
0.37151903 6.895127 -0.40525296
2.230123 -1.1321399 0.8644085
-2.6576846 -4.2694273 0.6662561
-0.27026665 8.669941 0.7569647
-0.860235 3.1250153 0.98405683
-2.078775 -3.5201557 1.2144293
-1.7761132 8.843264 1.0398294
-0.87029177 2.6937184 1.3755691
2.1044161 -3.101798 1.145477
0.17399435 3.6241903 0.14329165
0.7660186 2.4826767 -0.3967721
1.565489 1.4055089 1.1559975
0.5144449 9.398879 0.64736056
-0.34106997 4.5045156 0.3740903
-1.7000773 4.938187 1.0976511
-1.4076251 0.9272809 1.1721455
2.732399 -4.6501584 -0.14482988
-0.28083497 3.2030091 0.56909853
0.24266821 3.8262625 -0.23473786
0.03564383 8.0866375 -3.396822
-1.8405854 -0.34844276 1.5932118
0.30481192 8.331118 0.3188433
-1.1669797 4.9698734 0.35917127
0.52409035 12.438098 0.46415478
-2.6720343 8.892626 0.46426797
0.8537125 1.3907208 0.75425416
1.3061595 0.68552095 0.8202551
0.8074631 10.478969 1.4009778
2.0399957 -0.11868945 0.73719406
-1.0164676 7.537239 -2.1786299
-0.58662903 4.1135287 0.46617872
1.9407179 2.2708392 0.3157658
-1.7624854 10.219226 1.2249507
0.21452147 6.1501555 0.43703648
0.7164627 5.491439 -0.4259013
0.8626165 4.922343 0.7304835
-0.8818135 12.766736 0.8837937
0.7995389 6.7539577 1.0095356
-0.331176 9.122954 1.6133424
-0.94704205 6.7881727 -2.5530603
-0.9510942 4.321926 0.5869942
1.4791251 -1.4676101 1.1384952
0.048515983 6.5862885 0.98148406
1.274447 3.7711399 -0.029660497
-1.3735594 9.650129 0.70805305
-1.7068322 6.879704 -3.4867811
-0.54606736 12.514128 0.124836884
-1.8320793 0.65761584 -0.1703038
-0.6710466 8.852143 1.2808148
0.11996519 3.578947 0.8243078
0.37667936 8.127777 1.0582992
-1.145931 8.170691 -3.2145789
-0.12756398 7.332833 -0.40545246
0.34070152 3.66249 0.45896438
-0.826424 7.3787656 0.042782135
1.8243144 9.87837 1.1938281
0.43235955 7.4483576 0.3444402
-0.3845218 12.196374 -0.1588276
-1.3856088 2.839119 0.84250784
-1.3186625 6.908911 -2.5420125
0.22369252 7.315628 -3.2693949
0.7291425 4.7025814 -0.55265725
1.8965524 -0.709915 1.0415002
-1.1222204 3.6949406 0.19386688
-1.1213871 5.3498454 -0.32572877
-1.7144907 7.2303166 -3.1170099
-0.31585526 3.9021666 0.6997887
-0.40139654 13.702939 0.061953355
0.6709857 9.014675 0.5883467
-1.9731504 -0.23928687 0.46527916
0.9134806 5.95263 1.0571456
-0.98522174 6.5743856 -3.2599945
0.7914872 -0.30511943 0.5205978
1.4433186 8.984821 0.18628596
-1.3683326 3.7052703 0.45849335
0.049517833 12.753272 0.8514448
-0.42067626 7.1255217 -3.1741195
-0.9260279 13.072841 0.22904035
0.39455658 12.127586 0.18928201
-1.2690494 -0.09875192 0.83390415
0.6679859 5.225415 -0.1480821
-2.3218555 -3.8351936 1.0927694
0.8202056 4.005081 0.8034444
1.0743113 5.2211304 1.4508854
1.4230853 10.000491 1.3744973
-1.3726424 2.2998638 0.05155581
-1.9889688 1.4371058 0.00657969
2.0500035 -1.6109911 1.3696249
0.6900437 0.38716906 0.5279124
0.22630063 11.929881 -0.48460084
2.374821 -3.6426883 0.60908484
1.4514685 -0.15848073 -0.080886506
-0.26079062 8.065146 -0.27993137
1.671009 -0.0622393 0.6293732
-1.1599541 2.0266583 -0.25369105
0.14904204 6.238429 1.320343
-1.5018458 5.7004437 -0.16094221
-0.89000046 9.432774 -0.07749768
-0.74721146 1.6014929 0.21028967
-0.98295563 8.491559 -3.5954409
0.77589035 1.2432638 -0.114485346
1.532354 4.997958 0.09114591
-1.1941168 1.934044 0.16542584
0.18224517 4.5852575 1.8184706
1.2486062 7.6823454 -1.8292382
1.5051203 7.611706 -1.4819953
1.627384 7.346195 -0.8511574
0.20151453 4.117591 -0.59291947
1.080429 5.491296 -0.252007
-0.7165302 10.810415 0.44843203
1.0985336 3.1685007 -0.16884875
-0.69702506 6.547911 -0.3740607
-0.6723281 7.525921 -3.8582077
-0.56852895 2.0618467 0.184585
-1.3136606 6.1651716 0.6142065
1.7250822 0.6673268 -0.029373597
1.172689 1.99034 1.2893627
-0.5951283 8.382514 1.767538
-1.0949349 5.1193314 1.6173403
-1.3173816 2.441266 0.9184062
-1.5481459 7.3452063 0.07597383
-1.6807736 4.9602766 -0.06307942
0.63287514 2.192739 0.16919652
-1.6173735 8.505467 0.94080853
1.2048273 3.0456882 1.1543225
2.6261153 -4.6092143 0.29467976
-0.48043007 9.530637 -0.11459552
0.43537936 9.594726 1.059785
1.8919609 0.2916969 1.2736659
2.1498868 8.718549 1.099147
-1.6550244 6.516004 0.23497573
-0.18678552 11.600915 0.3780875
-0.6761493 6.6390376 -3.5517356
-2.8634195 8.153465 0.29152018
-0.8672091 1.6936518 0.9672415
-0.11788699 6.5709753 -0.18416539
-0.9058147 4.741019 0.5512792
-0.062803335 13.345688 -0.43753403
-1.6424266 -0.25654176 0.7523552
-0.30832344 6.7704372 -2.9993923
-0.8295137 9.546979 1.294162
-0.8789097 2.0270815 0.42943305
-1.209738 0.9283228 0.006628718
-1.097344 7.3674583 -3.4356897
-1.4047124 0.72835433 0.8405566
2.463421 8.060465 0.3151265
1.545515 -0.7165298 0.4280525
0.79429406 5.997422 1.663359
-0.21899483 11.499868 -0.24692278
-0.59625405 5.904054 -0.18638109
-1.8268894 7.9420905 0.54662627
-0.8404961 4.8309083 0.14870729
-1.5242441 6.0793586 1.1808184
1.3984509 7.149498 1.0876899
-2.2657304 1.3929181 1.0506254
-0.7584793 6.849415 -3.9257298
-0.526168 13.232024 0.24629958
-0.05077869 7.442459 -2.5967095
1.0798903 -0.49423477 0.36843637
1.22139 5.5431976 1.2594347
0.7225716 3.2680664 -0.1473989
-1.5239105 8.370727 0.5437749
-2.5908961 8.103341 0.084370874
0.10773168 3.2859027 0.45502868
-1.5245793 9.261447 0.9465079
1.2684258 9.010475 0.6949117
0.53392893 6.550629 -0.36841813
1.2319065 10.396263 1.3266014
-1.2955956 -0.114442326 0.42319664
-2.3307993 -4.597531 0.4657826
-1.0081507 6.5163665 1.5495801
1.3726901 2.4764414 -0.016531352
-0.61856866 4.7287564 -0.27426186
1.403812 0.6809767 -0.24187265
0.36694652 11.031571 0.9669062
1.4823016 1.5639784 -0.27149013
1.4296043 -1.1112243 0.91265446
2.2856555 -4.315601 0.307783
1.7542495 0.0011725227 -0.009932367
0.5897316 4.53918 0.0951707
-0.34954587 7.8390746 -4.0131955
-0.48613375 8.072874 0.08227638
0.20457675 8.135244 1.7312025
-0.48584446 3.837627 1.0717766
-0.97205174 2.3059993 0.17424141
1.682707 0.8616816 0.8016487
0.5550674 7.4946637 1.6579989
1.66942 4.8092504 0.41941503
1.3529412 2.3169527 1.1181248
-0.13409565 7.39723 -0.03690051
-1.333221 7.4792123 -3.1527336
-2.6933467 -4.1864347 0.29385427
1.7119973 2.8796582 0.8075939
-2.0307527 -4.261801 1.5640299
-0.23368023 7.486286 -3.962633
-1.2948608 -0.67270017 0.91735464
-0.88077414 3.3380861 0.2645078
-1.6250516 -0.39247632 0.35326725
0.6499108 6.6583567 1.3457762
-1.8996198 5.0296 0.2986288
-1.1383332 7.8952084 -2.6145818
0.80976355 2.5268755 0.32688332
-1.3046241 4.3605514 1.0782584
-0.28222224 5.042005 -0.30346155
-0.67942154 12.0418825 0.059240837
1.5303704 3.2794394 0.35994726
-1.319604 7.4737196 -0.1813486
-0.8300581 1.2409396 0.45717975
-1.1263683 5.3836384 0.37828285
-0.98790383 6.8720474 0.8212937
2.5575147 7.609974 0.14737329
-0.31608787 5.3670673 -0.5764471
0.0967865 9.415876 0.58065885
-0.95235944 7.1035604 -2.3002188
-0.3870008 12.770889 -0.60397726
-1.4411063 1.5540512 0.14000116
-1.1318349 2.6409025 0.14057517
-0.5916759 5.6898055 -0.5075623
-2.3089738 7.376881 -2.768795
2.1782713 -2.6957548 1.202715
-1.6379466 4.5188384 1.2292472
-2.0595922 1.8796399 0.11537845
-0.61146814 12.431541 -0.5306441
-0.6425411 5.78358 1.8013194
-0.78480166 9.588399 0.28999844
-0.5887133 5.7425985 0.7551405
-0.055112958 6.764876 0.244608
-1.112214 9.456923 1.0430385
-1.6733915 2.5117986 -0.27350125
1.8727126 -2.258554 0.8588651
1.9065543 -2.332298 1.2356691
-1.7225146 7.654009 -2.577404
0.7517252 3.9606488 -0.19261484
-0.97343844 6.2106643 0.4090261
0.6566283 7.1323414 -0.30206367
-0.7033523 9.830979 0.0037330848
-0.51131284 9.851168 1.5309784
0.43803483 3.9769185 0.1162973
-0.89650834 6.1732354 -0.2544453
0.9412105 5.289454 1.0348682
0.8088583 10.22793 0.6284641
0.8958555 6.950493 0.2003911
0.78731406 0.05224241 0.38248783
-0.23776934 8.143395 -3.7213414
0.9833206 3.5991278 -0.19596024
-0.96895826 8.10185 -0.18281358
0.4628236 2.343843 -0.21094953
-0.614324 11.192489 0.33599055
-1.5536658 5.380151 1.1737442
-0.58907366 8.324955 -0.2180524
0.38329402 9.628756 -0.040955093
-2.3233376 -0.34845552 0.2666796
-0.14560449 4.3619733 0.03874758
-0.52297956 8.513847 -3.02861
1.4201905 -0.09907873 0.9395042
1.8080573 0.33779213 0.18113014
-0.09884367 3.8003302 1.1659993
2.0862448 0.9536868 0.9089683
2.1097915 1.1023177 0.54393166
1.4672134 10.110398 0.31809565
-0.32930893 5.7024107 0.4437101
-0.5086853 8.728204 -0.22730716
-0.69660884 3.7793603 0.7226198
-0.557634 3.1448803 -0.39217713
-1.3885248 6.465281 1.3369701
2.288655 7.7141247 -0.05950753
-0.7904252 12.461866 0.7426851
-0.614751 13.450391 0.85541654
-0.26368055 4.16957 -0.5779542
0.40231472 2.7254813 -0.3540439
1.0612007 2.5206425 0.96200234
1.2540971 5.0819263 -0.20971653
3.0660658 -4.5765033 -0.19870752
-0.623569 3.6567545 1.4570416
-1.2308062 3.6053112 1.1651895
1.1526833 4.163037 1.3648534
-0.65897435 9.741194 0.59896255
0.32474694 6.951517 0.31062818
0.58333755 8.611433 0.576735
-1.3804957 3.7580943 1.4717925
-0.83446354 2.0724688 1.1240649
0.39502412 7.2684517 0.9987335
1.0595663 9.406744 1.1602846
0.6337617 5.59493 0.94865227
-0.9355484 2.3235884 -0.2120648
-0.6511438 9.4747305 1.6386589
1.4787788 4.7952223 1.0450397
0.15171188 6.5224886 -0.5116611
1.5737875 9.225429 1.2592788
0.96412414 3.5781732 1.3846534
-1.2905934 7.244578 -2.325427
-2.2422569 -0.68777007 0.17306067
-2.255699 -1.4417424 1.3339766
-0.31222957 6.490403 1.768432
0.82349724 6.747265 -0.2460987
1.7878352 3.0669184 0.031770796
-1.9280485 3.848156 0.8117132
0.9964605 8.288787 1.3234206
-1.3760027 10.422967 1.3296504
-2.0814567 -3.0841434 1.2588588
2.284711 -1.8120896 1.077904
-2.9921634 -4.580898 -0.35406372
0.76052535 4.231047 1.5902878
-1.9489625 2.7817857 0.8352287
1.9657454 2.2146664 0.71780103
-0.009309086 9.676354 0.90128744
0.45901072 6.3969417 1.147405
0.846748 8.505814 1.6439242
-1.9648522 4.2684383 0.2730612
-1.0547445 8.740041 1.204398
0.5182515 3.9620972 -0.5745756
1.4794068 4.340009 -0.12343767
-0.89644927 6.0348597 0.80278724
0.63994795 9.037428 -0.12848002
-0.5141958 3.1658359 0.22716774
1.7394626 0.48801377 0.7711872
1.3058233 1.853613 0.44347313
-0.543025 8.153063 -3.9826815
-0.6065213 4.5265617 0.6604624
0.36791247 10.051571 0.447332
1.6531569 4.158176 0.14654557
1.0356114 7.541745 -0.09935202
1.1593609 1.3529658 -0.2908909
0.26261413 11.744688 0.29594406
-0.8517619 8.485516 -2.762891
-1.6993954 10.2972765 0.8090124
0.5599212 10.020433 0.11294197
2.225934 9.344562 0.9914257
2.050748 -0.055716213 1.1308115
1.3560369 1.3163061 0.053352594
2.5315287 8.605959 0.47181433
-1.7720296 8.184426 0.8157151
-0.15718383 11.214235 0.38476714
-0.0773734 9.845599 1.5088025
-1.2230728 8.062752 1.5308688
-0.17088881 5.950037 1.4230996
-2.315724 9.588582 0.25863764
1.0630633 2.8648267 0.5105675
1.2924206 4.0980096 0.23643368
1.1215092 1.2498705 1.1033043
-0.25742978 7.8402977 -3.033093
0.18793643 4.8594923 1.1065015
-0.27143234 3.1503181 -0.16247329
-0.3062084 8.383532 -3.4056435
-0.2193706 3.4132946 0.21552727
-0.13097426 13.416785 0.28225958
-1.2352531 4.542089 -0.44761184
2.0340025 -1.1588352 1.4019077
-0.7681784 9.929943 1.2051964
-0.7777351 8.199025 -2.4176195
-1.9815444 -4.2172604 1.1117424
-0.6791805 6.5033097 1.8011056
-1.8594693 -0.8486677 1.23886
1.4215544 3.581041 -0.34051794
-1.73028 -1.5124215 0.94393367
2.1128216 -3.3702273 0.7834145
-2.3702354 9.204658 1.1256169
0.93222445 1.9373007 0.08769944
0.055714995 7.0604024 1.0033026
1.6186754 5.080888 0.7750681
-2.5274441 9.268991 0.3351064
-0.5082212 4.1668 0.0926117
2.6785567 -4.182817 0.93201476
0.9911264 4.2367435 0.48979795
0.010687151 7.511607 1.045621
-1.7332947 3.0699177 1.090501
1.9130231 2.6132214 0.586013
1.4651148 4.0405087 1.1025196
0.8071121 4.2426496 1.1537839
-0.023851233 4.5434103 1.0621415
-1.0878177 7.946213 -2.25938
0.7184715 7.7329826 -2.4497523
0.74815047 4.4606485 0.76418734
-2.320038 -0.34261003 1.139456
-2.2523122 0.7131946 0.5393458
-0.091792084 5.3663645 0.44522947
-0.5030521 6.850294 1.8374741
2.194735 7.7816772 0.36557662
2.5769026 -4.5993237 -0.68197685
-0.7432893 5.084443 -0.19239649
-0.3006198 9.525963 0.6616674
-1.8498572 -0.72798264 0.2531451
-0.21882002 4.6229873 1.8366663
-2.66906 8.558556 0.8635648
1.391086 0.46890908 0.16304165
-2.6495624 -4.599229 0.122655265
-2.5154977 -4.219929 1.0644038
-0.44198027 7.2798133 -3.573895
-1.6234823 3.5810516 0.18061839
-0.8859473 7.7840223 1.5720874
-0.54683775 12.492572 1.1136805
-1.4700699 3.9406493 0.05477503
1.5891304 1.3069004 0.34704357
-0.3140704 7.26528 -2.4125328
-2.5801544 9.288644 0.7445029
-0.012991502 3.1650891 0.8335064
-2.7168422 7.260515 0.036122274
0.018696954 13.189487 0.6688681
-0.48910475 10.541111 0.22466327
1.8315296 1.8156837 0.025607182
1.0985377 5.9950223 -0.076893546
-1.3635172 4.7436557 0.04161941
-1.5142343 7.50173 1.1502908
-1.6077377 9.375709 0.50684994
0.59873617 5.3545575 0.23518398
-1.6160182 8.206143 -3.50707
0.67315835 8.600736 1.2943841
0.73053646 3.3260298 -0.53329974
-0.89028513 8.566607 0.5039322
0.3258621 13.063655 0.98185694
1.3875644 7.4222617 0.41070998
-0.2758925 5.3402905 1.1172898
0.28089878 7.4648294 1.366755
-0.14486885 4.950371 0.40577012
-1.414971 5.093092 1.3785511
-0.9889489 5.8292184 1.1701148
0.8121005 0.7657101 0.74612325
2.0108325 8.348455 0.87642395
0.21466652 4.5432167 -0.22123733
0.890311 3.2649503 1.2584833
1.5884895 2.0557227 0.20568097
-1.0765764 5.107671 1.1962311
0.24429707 12.305307 -0.58383626
0.05367255 8.013358 0.52271986
1.8712227 3.0340867 0.45938975
-1.2497593 2.0778193 0.9682787
0.36878228 3.1575577 -0.47824046
-0.018451514 5.556498 1.3481848
-0.19951993 11.803129 0.046143364
2.2482738 7.3587847 -0.6821896
1.1259334 5.8861837 1.3842773
0.264539 2.8272786 1.323177
-0.5547168 8.919404 0.52632874
-0.29237342 10.228092 1.4455972
-1.2596154 9.222099 0.67183983
-1.3630999 7.652179 -3.6469977
-0.011347444 8.600229 1.293218
-1.2527245 10.7689495 1.1808044
-1.1415817 5.1791186 0.7132155
1.1049885 9.014911 1.0735496
-0.6905123 10.456314 0.6367184
-0.5231359 4.871577 0.40965885
1.1825521 2.6586013 0.24615091
-1.6729313 4.186211 0.9317496
-0.18018517 6.482524 1.3755227
-1.5793208 8.280341 -3.1109366
-1.580241 -0.7207387 0.56867474
1.5590578 5.6234508 0.37089464
-0.39963606 8.031259 -2.4318957
1.4838804 0.19278482 1.3212785
1.0983351 2.6280625 1.289148
0.1961495 8.560719 1.7131293
2.155642 8.106241 0.16479647
-1.76441 4.194958 -0.10567037
-1.4345957 4.7555957 1.421154
-1.6665862 5.7137055 0.9853862
-0.10266769 7.7617264 -3.3378174
1.8090554 3.6453793 0.6783478
0.78063273 2.7965922 0.7311512
-0.78933483 8.364806 0.13446616
-0.96748483 8.570484 -3.1617312
0.6500078 3.165991 0.93015933
0.43599796 3.376742 0.7114647
-2.0945268 2.687794 0.2490446
-1.6714585 8.749678 0.5121137
-0.053628545 6.29584 0.72793525
1.4871846 1.2272694 0.7796008
2.3320348 9.449554 0.6471544
-2.028652 8.764402 0.3252365
2.1407852 -0.78383255 0.6784995
-0.46159387 12.925233 -0.033653405
0.38193232 12.616573 -0.37572333
-0.4631532 4.5233335 1.0208958
1.2016177 9.208068 1.4557238
-0.8816229 6.2203217 1.2661538
0.2261829 7.1175504 -0.050685868
-2.6609888 7.3039327 -1.9587156
-0.30974472 12.112756 0.98551214
-0.2233297 7.2092505 1.6699542
1.2396071 7.176507 0.17912687
-0.3619651 7.26833 1.055619
2.1060808 -2.021939 1.3237538
-0.3550859 9.675666 1.1851572
1.3714485 4.069909 0.62972057
-0.9963542 4.042181 0.8893308
1.1089777 9.172126 0.37240735
-0.09965514 12.034928 -0.70483077
1.7314911 3.894163 0.40045643
-2.3146787 8.481739 0.17509753
-0.72692645 4.5675764 1.396505
-0.30576664 2.7686956 -0.0034956024
-1.8344402 5.400853 0.46134996
0.47658813 4.697413 0.5043205
0.07959978 9.01637 0.15945059
0.4479735 12.500509 0.012883056
-0.59458905 6.132992 -0.4972674
-0.9156188 6.4272394 0.767986
1.4345471 10.584883 1.033595
0.2589624 7.981858 0.07645906
-0.11533202 5.3773136 1.7599658
0.34139627 8.259313 0.6962198
0.47687653 3.8796942 1.611782
-0.88816184 10.46346 0.27462962
-2.7062244 7.451133 -0.71690404
-1.0366939 6.6790495 -3.6769967
2.1822693 -4.2962527 1.4412644
-1.708478 5.788051 0.14559242
0.051674902 12.847977 1.2248932
-1.5779173 1.9116881 0.07066048
1.2154653 4.856795 0.18996695
-2.7924685 7.432194 0.42491454
2.4363155 9.010804 0.561784
-1.1732078 3.3962379 -0.39658365
0.042441506 6.882811 0.6447586
-1.3877926 0.6444003 1.3575287
1.0872588 0.62599283 0.51147544
-0.12855425 11.122518 -0.03755284
-0.66791016 3.1851473 0.65598005
0.8618397 6.5190134 0.12949547
0.061240133 5.9562697 0.9741362
0.5862248 1.3513352 1.0738268
-0.7439125 7.149564 0.8259759
0.36753905 10.543297 1.3796653
1.4194682 5.9921937 0.20112559
-1.5542123 8.15389 0.20563005
-0.6002552 9.291413 0.5946406
-2.1417217 -0.20974915 1.4513687
2.5000167 7.455617 -0.2605086
0.4391566 4.208166 -0.19773778
1.5266501 1.7070328 0.80328834
1.8209839 -1.1040164 1.053736
-1.241624 8.476079 -2.9290242
2.2054217 -2.5289752 0.7944931
0.21939746 13.588749 0.53150487
1.7907624 9.95486 0.69238675
-0.5572928 6.727647 -2.7153184
-0.07555182 5.180816 0.06066491
-1.9546733 -0.38831457 0.07209705
-0.19294252 4.6204033 -0.30313402
1.1796913 10.424109 0.4463244
-0.3562274 7.653375 -3.6048071
-1.3421835 7.517618 0.79740125
-0.57196206 10.204072 0.08159492
-0.22274812 9.206417 0.35301608
-0.39887142 8.157571 0.45715618
-0.60054576 6.5938735 -3.1502857
2.3620272 -3.3698883 0.97314394
-0.92490494 6.6585736 0.42355236
-0.9711295 3.7832112 -0.48472908
1.2693886 10.167459 1.0511105
1.4299779 8.852808 1.2973628
0.16429238 13.448795 0.91666865
-1.6578319 7.617429 -2.9751804
0.5275489 8.525077 0.089423105
1.1704621 8.779648 0.38630554
0.9035048 5.6007843 0.3138994
0.9155153 6.7888746 0.5781359
1.1256809 0.26223493 0.4664055
-0.24688147 9.334224 1.0299413
-1.8895605 2.1362255 -0.11161567
-2.1394873 9.743875 0.7168384
-2.0789526 -1.5420253 0.77326864
2.070894 9.108797 0.62741673
-0.22845058 6.214959 1.0995373
-0.6577463 6.1421223 0.116631106
1.7263937 0.13099226 0.9571746
-0.6858045 1.5240537 0.66116035
0.13474491 7.697316 -0.33704844
-2.171681 6.997698 -2.8651218
0.11480295 4.9396453 -0.30160058
-2.1008167 3.4426105 0.522829
1.4405484 -0.22665277 1.3319931
0.74076605 8.389069 0.9106995
-1.7501422 5.3884797 0.05861767
-0.9591702 8.113621 -2.8712103
-0.5903127 6.6482573 1.4270592
1.515671 1.8660808 1.1004227
-2.0798724 2.4197574 0.89341396
-2.15999 1.0308799 1.1959877
-2.0996857 2.0540674 0.9841469
-1.2346553 7.6164107 1.5128196
1.1396044 1.8570507 0.8849979
-1.667837 -1.0379214 1.528207
1.0696214 9.820302 1.1417686
-1.0838182 1.6006726 0.37172955
-2.6153114 -4.6043367 0.88111955
-0.5891324 6.017728 1.067427
-0.28707302 2.5432537 0.6060547
-0.31355828 4.508364 1.367404
-0.72679543 8.797852 0.15616044
2.02875 -4.606897 1.2519603
-1.465438 1.2216886 0.90102315
1.1134883 -0.16357002 0.20561129
-1.0925615 7.766216 -3.329148
1.7020128 -1.3513551 1.418517
2.2759998 -2.2913277 1.0854666
-1.7296187 3.6054144 0.5831103
1.4842739 10.630865 0.6589717
-1.5165786 7.8491755 -3.2857304
-0.5343331 9.263357 1.2837187
-2.5820193 7.064727 -1.7385288
0.10351723 5.230972 1.0566779
-0.55040526 4.9356027 0.7868872
1.1008501 8.016227 0.5917892
-2.0133755 9.83471 0.2517255
-2.652381 -4.3357506 -0.16146253
-1.2914332 6.657672 -2.8824484
2.0789459 -4.2215157 0.6547282
-0.92188257 3.1217294 -0.33038682
-1.6682571 1.5283768 1.1253357
-0.15070373 13.026313 0.2336865
-1.6537296 -1.0705806 0.9360407
-0.08325517 6.1598883 1.6916337
-2.1657789 8.814991 0.9697875
1.560482 8.951416 0.9684937
1.2142814 9.612224 0.8353484
-1.9442182 1.0383939 -0.03777111
0.18897413 5.286837 0.6827914
-0.4435381 5.2301283 1.5305613
-0.9909903 10.094491 0.12552384
1.7140522 3.4163582 -0.08162209
0.8375809 4.8996196 1.5986035
-1.5446616 7.1479645 1.1091994
-2.7381876 7.483792 -0.2577987
1.9223036 -1.5015395 1.0350932
-0.298091 10.643823 0.5311574
-0.74021703 3.4738007 -0.49050546
-0.07143966 11.082235 0.9542653
0.22876132 5.611622 0.947399
0.5800432 10.172379 1.5332962
0.8410905 8.016153 0.9804761
-0.105864026 12.911163 -0.22623177
-0.137926 4.1640325 0.3989851
1.1083703 0.76160717 0.18362752
-0.48710382 4.3110085 1.6507299
1.6026797 5.231701 0.4279062
0.7936974 4.438493 -0.22804834
-0.26851863 12.242372 0.18910787
-0.5607951 8.363067 0.76894915
-2.252999 8.386041 0.8257975
0.24765575 10.35111 0.20209517
-0.78862274 12.291143 0.32672307
0.183639 11.036921 0.23700574
1.7169538 -1.7846111 1.2991369
-1.0931377 8.808394 0.17902967
-1.1657703 7.2065215 0.17365566
-1.1574281 7.879899 0.8920615
-0.21607855 13.451681 0.9836121
-0.5956843 7.9912095 1.7971294
-0.41328406 11.368679 0.06485842
0.040258903 6.3736544 0.1762394
-0.48718742 5.362419 0.71496785
0.14923573 10.207415 1.4492452
0.34997708 10.669941 0.86657965
0.95514375 3.8314989 0.19985053
0.15899174 6.4838853 1.7365698
-0.16257729 10.32923 0.11710274
-0.15556866 8.136072 -2.7475777
-0.24043326 6.5812206 0.548191
1.3899451 3.124358 0.6756662
-0.5000565 8.546579 0.42943656
-1.6795464 6.8232646 0.8988251
-1.0830079 1.8378887 1.2712591
-0.013306537 2.8443437 0.5769442
-0.034724437 10.714033 0.19723774
-1.9575608 -1.2697346 1.136012
-0.5148601 7.15837 -4.0434127
-0.27306163 5.7865596 1.8022351
-0.627726 4.1673517 0.8693469
0.5899404 3.646708 -0.27404454
0.43225437 7.5714006 -2.983698
-1.8935149 10.639504 0.7769644
0.26007465 4.775889 0.1046433
-1.8567005 -0.40069467 1.2202411
1.670802 10.268737 1.1512648
0.25644368 7.667385 -3.3656843
0.887331 10.187769 1.0828084
-0.3202841 10.8691635 1.2013763
1.968908 8.4930315 0.21193355
0.6128354 4.9470034 0.17973381
1.3350073 4.4731097 0.42543685
0.7847969 4.2132893 0.14407209
0.24618174 7.6273603 0.6840714
-1.76386 9.064224 0.252916
1.9210196 9.47489 1.1920326
0.9155409 7.4354444 0.27094197
0.9270475 7.914407 -0.17449129
0.13829747 11.278019 0.7031978
-1.8556339 3.4803686 0.95788544
-2.8618762 -4.578644 0.47455183
0.7462957 3.5665867 0.5181282
0.24425419 2.896379 0.24036534
-0.8678968 7.5569644 0.8337918
0.3837409 12.470772 0.7760575
0.8951666 0.06715809 0.76548445
1.527013 2.8468015 0.39917713
0.110829026 6.0848165 -0.56477815
-0.17308922 7.161013 -3.8178546
-1.1472647 8.224542 0.54519767
-2.1593277 -3.6049302 0.7943633
-1.4051597 9.370618 0.018556513
0.48435724 3.7618737 0.8042847
-1.3975934 7.0821877 -3.2759914
-1.4193192 2.9725747 1.2598759
0.8482571 3.5368738 0.9107289
-1.4515145 -0.85942984 1.2292321
-0.40938237 9.907155 0.34575373
0.27196392 3.2357235 1.4586549
-0.7534327 7.3264155 1.1772981
-0.9078257 6.5949683 -2.882859
1.5424038 -0.31914803 0.35743225
1.3660823 -0.50012517 0.056688398
0.7841526 8.894129 0.23451063
-1.5584383 4.3632283 0.18358283
1.1358082 3.414326 0.5208014
1.5151815 7.3139067 -1.2609599
-1.8076743 1.7518957 -0.19738369
-1.5643882 3.128283 0.062223367
0.26573125 5.8354306 1.3408817
-2.113326 -2.8271377 0.9417067
1.2073408 2.1596045 -0.38660836
-2.4391346 8.441605 1.1217533
