0.17052017 10.833693 1.1740154
0.54752266 4.327974 0.4938442
1.4594581 9.365146 0.58106184
-1.9343585 0.6615241 1.3533455
-1.2045025 2.1983247 0.48722446
-0.58790815 9.218747 0.15608284
-2.313329 -4.5918374 -0.06377564
-2.107928 -4.647996 1.7236389
-1.7155204 -0.013872861 1.1243972
-0.79181266 4.5397563 -0.5507432
-0.8781139 8.924476 -0.21547696
1.0900437 5.62043 0.9174254
1.0618415 6.243964 1.4559513
0.8005645 6.1180186 0.08229563
-2.5074728 -4.5771203 -0.4632837
-1.647238 9.492805 1.2213992
-2.423677 10.118578 0.76495016
-1.4055178 3.4933596 0.80407846
-0.13834698 6.9833508 -0.038763225
-0.37604663 7.734766 1.704701
-3.3569748 6.832058 -2.289381
-1.3648582 8.018942 -2.9761276
-1.4688478 8.047055 -2.5669568
-1.4298646 9.718499 1.050645
0.60996985 6.652722 0.38346165
-0.71467376 3.99913 1.6359617
2.480928 -4.235892 -0.08716301
1.2595023 8.234552 0.08357288
0.18850851 8.124911 -0.2212706
-0.3126302 5.026493 1.8737016
-1.2681553 1.2502432 -0.14720923
-2.1214364 -3.324833 0.927589
-1.7337853 0.84538 0.78748477
-0.5559969 5.5964727 1.1132368
-1.410379 0.5717511 -0.03362681
0.8546692 6.4542994 1.6592792
1.5110924 8.191553 0.3928362
0.16608003 9.009806 1.6843296
1.5222304 0.038227905 0.26408845
2.0380154 0.2612222 0.55482316
0.68112415 7.0845714 0.47624025
-1.823356 3.2902691 -0.12183136
-0.9701028 9.211884 0.25927803
0.69014865 7.434347 0.6649216
0.93833387 8.31806 -0.11362384
0.48565295 9.538964 1.6360191
0.56623495 4.8429976 0.96708184
1.6307937 0.21540883 0.5556736
2.3197114 -4.614578 0.5430496
0.5511822 8.343595 1.6594738
-1.0246314 9.411542 1.5820017
-1.1682279 4.517717 0.32953072
1.5080229 4.01837 -0.2197276
0.84054863 0.8485117 0.017580863
1.919332 9.528158 0.6276968
-2.1009197 7.5903025 -3.8115487
0.3039543 8.836534 1.3397328
-0.21859099 4.3103843 0.7582849
-0.06858747 10.69204 0.8581277
-0.31243765 12.573331 -0.3006112
-1.2597922 2.8630981 -0.3533345
-1.5500025 7.337094 -1.8689669
-1.8169122 9.563134 0.8257452
0.7769799 8.817075 0.95890266
2.4158032 -4.5861874 -0.3519997
-0.57354915 13.510477 -0.20119448
-1.1985676 2.4327998 -0.3139661
-1.4290447 7.9491816 0.5192518
-0.256586 9.929148 -0.05075087
1.0247223 5.998107 0.35263887
1.1001008 4.6993256 -0.38495004
-0.9445905 7.2294207 -0.24927303
0.30536497 4.577167 1.4338723
-0.3597166 13.5809145 0.5348619
-2.4696555 8.807065 0.9563943
-0.15298498 7.6831455 0.7017327
-1.1363612 0.24924812 0.9376527
0.096142925 9.429446 0.17023131
-1.9871268 -0.46495605 0.87907946
-1.4426101 4.0948544 -0.34989277
3.0521786 -4.587582 -0.5692262
-1.3645289 5.138583 0.93018395
2.5506997 -4.647638 1.4122587
-2.2092972 -2.5547001 0.9299052
-0.7327143 12.758245 1.009878
2.5951824 -4.6102867 0.9985936
-0.7039587 5.04408 1.8217676
-0.418847 12.123942 -0.7036422
0.59558797 2.1527195 1.2715111
-0.7331423 7.9620714 0.8268847
-2.6541028 7.1824546 -3.4765227
0.8671027 8.974841 1.6325569
-0.63410884 5.9463897 0.47962183
-0.85877246 5.407004 1.7267978
1.5297269 8.25622 1.0831015
-1.430283 5.14487 0.18818566
1.0557501 7.4058895 1.2825669
1.8117541 -1.0120728 0.67148525
-1.4249727 6.9630895 -2.0715346
-2.243605 6.5630527 -2.9131591
-2.1185596 9.6007595 1.0957259
0.055933584 2.5514941 0.35343072
0.5318586 5.223978 0.9982723
1.3888952 3.4228623 0.08180331
1.7262236 4.351125 0.5537225
-1.0007629 4.7141657 1.6977018
0.0059318105 5.164098 1.4610797
-1.8976376 9.502117 0.16580635
-1.3910863 9.075779 0.3276059
-0.2447216 7.638363 -0.3341149
0.4261497 4.521329 1.0278333
2.1752677 -4.5769105 0.9363713
-1.5420604 7.908767 -3.7888277
0.031813268 8.90123 0.98375076
-0.48701346 7.179347 0.06306785
0.5236408 6.7516584 1.651562
1.1617366 9.998956 0.62050265
-0.61012197 2.8154845 1.1041967
-2.1505318 -4.268468 0.6477649
-1.1722301 7.6083035 0.19934222
2.4928513 -4.232013 1.2516748
0.12922987 5.805054 -0.22631982
-1.5556877 -0.051041406 0.12478825
-2.7640328 7.1003304 -2.6728773
-2.321773 -4.248952 0.17446752
0.41858608 12.187969 -0.29538342
1.1402136 6.9465876 0.88700455
-0.23355669 4.164 1.1209743
1.4469702 1.7348189 0.08623021
0.2670393 5.10235 0.36810997
-0.34007922 3.48693 1.2721276
-1.4646513 0.5219343 0.47387585
2.099141 1.5252323 0.6203438
2.0075128 9.081504 1.167759
-1.5850439 7.8754563 0.9005838
-0.6969373 10.239383 1.4620267
2.849401 -4.2859397 0.05183321
0.15864363 9.976535 0.019017477
-1.5419397 0.9465567 -0.21865724
-0.15526867 5.111023 0.8025317
2.8661373 -4.547533 -0.890082
-1.89015 6.5254936 -3.0087795
-0.34698856 10.269435 0.50164485
-0.6366238 7.546567 1.7947388
-1.4352988 7.918922 -3.346923
1.9348344 1.7941085 0.8625643
-1.2229912 9.006578 0.9387104
-2.2908695 7.4572315 -2.45597
-2.6723528 7.7770705 -2.6408808
0.6720621 2.5744247 1.3499824
-1.1604835 8.423089 0.16780058
0.49447364 4.2090545 1.3415788
-0.5030845 11.713229 -0.21737918
0.9470776 1.0228844 0.4432731
1.4391245 -1.1128516 1.2303473
0.056345176 12.695046 -0.64137954
-1.7501273 8.034513 -3.1844757
-0.49447653 10.731691 0.8146399
-0.16628899 12.789479 0.48468697
-2.7890048 7.731979 -3.0347905
0.54311997 7.8435655 -0.21248917
0.91263 4.6427364 0.4110728
0.92715853 1.9021919 1.3102086
-0.9358796 0.8840366 0.37952548
2.1703675 0.6520962 0.72964716
2.4184737 7.4337955 0.6311233
-2.0215368 3.1249945 0.21183889
1.1073321 2.8053167 -0.078566596
-1.4038948 10.07214 0.57628155
1.6194848 -1.7904686 0.9718278
0.37205482 7.664812 1.0410625
-0.77705616 10.920523 1.1176859
-0.330491 3.1762328 1.0469215
-1.2728229 -0.42499244 0.6125912
1.3915418 6.692004 0.6292826
-0.76925606 7.5134573 -3.22589
1.6856881 9.576025 0.9181493
0.34410566 13.362721 -0.32041797
1.4001578 5.252623 1.1356645
-1.2859385 10.492819 0.8276686
-3.0016108 8.230675 0.64869165
-1.8256396 4.976081 0.67562073
-0.92698824 7.014221 1.2562883
0.555187 7.3164444 -2.2569137
-0.11266418 2.9865305 0.2914983
-0.1887079 4.7014656 0.7469326
1.170003 8.365919 0.4450757
-1.3896526 6.95274 -3.0821216
-1.8185649 -2.003291 0.9739252
-0.5476339 12.833622 0.33502
-1.1598736 1.393578 1.1093684
-1.9829555 6.9171605 -2.7858305
-0.75620824 5.000152 1.4607457
1.2204598 0.42532822 1.2414188
1.9155606 10.046628 0.2754314
2.6239843 -3.9095817 0.64240336
1.4255443 3.7081294 0.36598665
-0.9329636 5.8104553 0.16310386
1.2815019 1.3762115 0.47986844
1.440549 -0.4380983 0.7608932
-0.18377301 5.788379 1.1417708
1.5585753 5.95357 0.65582097
1.8540165 8.862493 0.32254174
-1.5237505 -0.15393613 1.4194202
0.62700343 2.198067 0.57804096
0.29758388 4.784907 -0.5987356
-0.59947807 6.7133064 0.7078079
-1.6818894 0.41358954 1.5029325
1.740645 -1.4706213 0.75932693
0.675538 7.4059515 1.2979238
-0.8002031 7.86184 0.15334612
2.9982183 -4.5947375 0.23618144
-1.0660433 9.867815 0.43059668
-1.6740098 2.0892057 0.3151519
-0.07701898 10.546739 1.3022827
0.5669602 1.9299854 -0.068258405
-1.3928373 5.566485 0.73982686
-0.30896917 7.0605383 0.41729882
0.42949197 1.4673375 0.42293212
0.76865715 10.53559 0.89361423
-1.3787824 1.6972901 0.8994663
0.8633942 2.0641956 -0.26037708
-0.8007368 6.5028834 0.066823706
2.75801 -4.37773 -0.40392703
0.13379563 4.0012283 1.5296563
-0.31722066 6.9788976 0.79368615
0.04884523 12.129073 -0.13639486
0.5865073 1.536936 0.061387815
-0.47508934 6.3036814 -0.14856182
-1.6333816 1.2102367 0.17352907
0.6296246 13.031052 0.3442221
0.43591535 5.0249214 1.4094677
1.186364 0.9742989 -0.21805927
0.70603776 10.361596 0.2660848
-0.05605174 13.620115 0.6497192
-1.7360423 2.35802 0.9505646
-1.421782 1.798977 0.48987737
0.8015826 9.372948 0.30563936
-1.153733 6.2488546 1.0411769
-1.6687646 7.23443 -2.881307
-3.5470552 7.088542 -1.1313999
0.39029652 5.4655075 1.354176
-1.1272023 0.57480973 0.28087175
-1.554852 7.1985393 -3.835139
-0.5111403 6.7642746 0.29909784
0.8800441 4.200339 -0.48880163
-0.23060709 7.800955 1.2875161
1.1690977 8.648814 0.011683443
0.9030178 6.344347 -0.23705296
1.0446142 4.549696 1.5390531
-1.2552449 4.3683486 0.7280642
0.80490124 3.1979136 0.5557151
0.10869998 5.749972 0.50936604
0.03853077 4.184906 -0.23733306
0.35967302 6.304533 0.7976711
0.5984575 3.0908256 1.3784482
-1.2154286 3.3450534 1.45819
-1.298001 3.4605625 -0.048150018
1.1819334 7.8150473 0.9178815
-0.04778661 3.6911397 0.50858754
-2.2055626 8.096106 -2.1860971
0.22588745 7.745722 1.7788296
0.44298035 5.5955377 -0.10655869
0.5947475 7.7983265 1.2985463
0.2537952 13.563671 0.068239465
-0.82464015 7.073613 -2.6980424
1.8246896 -0.105923705 1.4236232
-0.4794128 6.131222 1.8495727
-1.1369549 5.487213 1.0748428
-1.62254 1.3228383 -0.24249174
-1.2563511 9.515432 0.32064936
1.5565063 8.573411 1.1150942
-3.2694113 7.986853 0.4833724
-0.7792204 11.070559 0.66866636
0.66520494 4.6322374 1.3546375
-2.0771835 0.6630843 0.9285382
-0.5367368 5.6477013 0.15582171
-1.2363335 5.8690577 0.92666435
2.3128517 -1.4960446 0.9550178
-0.6471784 1.9519563 0.8135925
-0.21186882 6.879924 1.2560556
-0.73705095 5.2217326 0.18485871
-1.7058051 8.1907835 -2.864822
-0.7321507 7.4703403 0.3991346
-1.2491361 2.6375642 1.3346564
-2.488199 7.0962405 -2.319456
-0.61840886 9.578342 0.9054924
0.16157772 10.377918 1.001945
-1.7904967 4.604738 0.85671467
-0.2519862 7.1656847 -0.37602365
0.06569701 10.449345 0.54109347
-1.5913937 6.872209 -2.7176104
-1.5023377 3.2869825 -0.33666858
-1.7135541 1.9574071 1.0568737
-2.3280122 -0.6969411 0.94492316
-1.0759135 1.0121471 1.1768129
0.21139656 9.303998 0.9140811
-0.37825993 10.90695 0.10201636
0.6738881 7.6945953 0.13805905
0.12234616 13.179641 -0.07609123
-2.133219 2.915444 0.50682336
-1.4693481 8.387013 -3.2858207
-1.5072742 7.7987857 0.05692756
-1.3322368 4.8907638 -0.3353621
-0.42403826 12.448531 0.43522722
1.237065 3.4888244 0.9686062
-1.9402401 2.4959948 -0.11724745
-0.9740388 3.8780746 0.5309292
1.2380668 5.697059 0.5658264
-0.99838877 9.864306 0.818681
-1.1325039 8.367787 1.1698654
0.09071154 3.3720555 -0.34259754
-0.71147 13.481932 0.44528544
-1.0132618 5.7690306 1.6058382
0.86182445 1.6507877 -0.19338462
0.02260795 9.14286 1.3304726
-1.0440191 4.696871 1.2914313
-1.7342894 7.5590005 0.6735477
1.1458232 8.26652 0.92581594
-1.1863849 6.1245966 1.452007
-0.974235 4.6524415 -0.12032892
0.6064033 8.181286 1.3049786
0.24153753 13.147609 0.28350946
-0.41901657 4.9668274 0.06961044
-1.090704 9.87774 1.1822321
-1.2799729 6.4891148 0.470369
0.8487416 9.74392 0.053510327
1.5415671 3.1892262 -0.29085255
-1.3604009 8.231687 0.86656827
0.3970493 10.657833 0.37061387
0.57440424 1.113958 0.24431583
-1.4749416 1.2289035 1.3191655
2.2937934 8.52569 1.1451839
-0.020646468 9.628804 -0.10192102
1.0768795 7.1767764 0.5505802
-0.06322356 7.5841146 1.6033057
2.0953124 -0.4125952 0.47769052
2.1517942 -1.7115276 0.6859676
1.4705567 2.97915 0.058206152
-2.6014717 9.730356 0.53317
-1.3538685 9.964436 0.1718913
-0.9236985 7.3274813 1.5566068
-0.8424284 3.847838 1.2049115
-2.198629 0.3482192 0.3116604
0.08069256 12.466818 0.47910666
0.0006805303 9.753394 0.38951162
-3.0016656 7.3780665 -2.8282783
-1.5160518 0.18827131 0.86648595
-0.2669569 6.7357154 -0.46991184
-0.50280595 2.392494 -0.070769206
-1.988831 0.2914475 1.1073778
0.28377864 7.545799 0.026499527
-0.6575878 10.098967 0.78540474
-1.7174916 0.933984 1.1915531
-3.147654 7.956874 0.09737519
1.0892115 7.005787 1.2887857
-0.4479929 11.833754 0.69259757
0.6996465 5.2783303 1.7135967
-0.4502448 2.8173497 0.43529555
-0.7730413 7.3772306 -2.4676976
-0.35479352 2.44149 0.28321156
2.0232568 1.4818602 0.29551527
0.36543888 1.8641216 0.27770275
2.319926 8.929134 1.0179126
-0.13047996 4.882018 -0.6169677
1.729915 2.1218064 1.0289202
-1.5574017 7.395769 -2.2076864
-3.5295796 7.629633 -0.4876362
-1.5442392 7.626161 0.36703146
-0.6350903 12.010489 -0.43611577
-0.9122622 10.64934 0.84544086
-1.378056 -0.44080737 1.1605041
1.9696808 7.4918747 -0.4557528
1.6004428 0.5295848 1.1451427
-0.4685686 7.380889 0.68684673
1.0834607 7.166868 -0.10208487
0.29683155 5.3375936 1.732899
0.6483445 8.127678 0.14937918
0.0087012425 4.769665 1.4937557
-2.0762439 0.68139064 0.11713983
-1.0957916 2.2814965 1.3255266
-2.206476 -1.0369912 0.85610926
-1.0431743 3.6595325 0.8833285
-0.28590477 8.057233 0.7780956
-0.3737613 8.55367 1.0570283
-1.6316606 10.613937 1.0374447
-1.3708428 7.540529 -2.8555074
0.42311284 8.941492 0.93876755
2.0901785 -3.8854463 0.7763006
0.70647347 3.8462276 1.2033116
0.48936325 6.394914 0.05780603
-1.971516 3.527622 0.1522554
-3.5428128 7.2689595 -0.4225502
-1.8059334 1.1914829 0.51170206
0.95776236 8.597766 0.6668163
0.9320976 5.6058545 1.6091232
1.1250787 0.038366303 1.0865272
-1.1156447 3.0590816 0.022353595
-1.3599552 6.868484 1.1297363
-1.8802056 10.478884 0.40176874
-2.5480857 6.837949 -3.3956273
0.119157754 9.58428 1.2531451
-0.6594163 12.761223 -0.40002865
-1.5669438 0.8320985 0.18985839
-0.97125304 6.6312156 1.1678153
0.1328395 5.739289 1.7889477
0.92874503 7.243961 1.6234338
2.0340786 7.2237215 -0.11944753
1.2836653 -0.1118779 0.60111004
-0.09652995 11.64072 -0.769677
-0.08964378 3.5875473 -0.0731513
-0.20263845 6.1281953 0.44840473
0.31129113 7.2001104 0.6802727
1.2518797 5.2761335 0.7407276
-1.9307724 8.624498 0.7271881
-0.45040855 13.129742 -0.46224493
-1.4194238 5.523672 0.3612262
0.882197 3.00831 0.16910918
1.500206 2.7835376 1.1232424
-0.48356104 7.628425 0.05405321
0.5552887 13.208646 -0.040937405
-0.15731753 8.388083 1.6304119
-1.549043 3.3920286 1.2185878
1.2557225 9.7951565 0.14896552
1.958455 -0.7604395 0.33499837
-0.8396596 6.9402714 0.089357845
-0.51280695 11.410476 0.55699486
-2.0348325 9.452032 0.48575178
-2.7747045 8.96084 0.7256218
0.48255894 7.4318314 -0.31060165
0.99348426 7.82197 1.3100587
-0.30173934 7.4602895 0.35088763
-0.69622684 4.8287454 1.1015947
1.0180595 5.2533216 0.075225934
-1.0932139 2.62053 0.5877446
-0.87408954 12.5944195 0.35822323
-1.069141 4.125724 -0.45792767
1.2198642 3.114981 0.30912718
0.38284677 1.8253509 0.6645094
0.8006659 7.6128607 0.9734929
-3.3079925 6.9605017 -1.3952341
2.263349 -3.9385915 0.38661206
-1.7167444 7.1854796 0.7097817
2.7437963 7.4636154 0.45805168
-0.8309957 1.2589813 0.9243173
-2.4692497 -4.6247826 1.4057946
1.5077637 6.324862 0.8495894
-1.6415033 -0.6913183 0.8983084
-0.24412487 12.494523 0.77647907
0.8908479 2.8652704 1.1982554
-3.2477186 7.2132587 -0.1149437
-1.549686 8.8962555 0.66632986
0.75351393 9.834761 0.45481896
-2.129593 10.249734 0.27531978
0.1261174 9.427423 1.6230267
-0.7601263 8.4537525 1.1966997
-2.5419314 -3.9381194 0.74902993
-1.510426 6.440187 1.005552
1.5577251 5.516592 0.81876785
0.07909951 10.876811 0.5442594
-0.88795865 3.475053 -0.11059815
0.45405033 2.61213 0.6183278
-1.8363646 -1.4758394 1.4882407
-0.26178482 13.529789 -0.41393703
2.0527306 10.262768 0.54809564
-1.0718628 5.772371 0.55177635
1.0282027 0.7522472 1.1510926
0.19605634 4.8511634 0.7470256
-1.4022775 7.9172783 1.2282592
-3.216374 7.06388 -0.99351156
1.5302131 0.9188253 0.167844
-0.13552168 8.806014 0.41543612
0.32058862 2.4499602 1.1803051
-0.9592087 9.162388 1.262149
0.039087944 3.9551182 0.1131717
-0.69613403 5.3039117 -0.4616189
-1.8096522 9.853637 1.1978196
-0.12630326 8.210393 1.2618726
-0.81362784 4.298917 -0.17385429
0.24945717 12.863195 0.50620186
2.6792412 7.308853 0.12272136
-2.203051 -0.01633998 0.10617645
0.8840814 8.07919 1.628162
0.6351632 2.8834226 0.3914254
0.46287706 5.5223083 0.60371745
-0.6076118 3.1529171 1.2796277
-1.597108 8.523444 -2.9774535
-0.6132449 5.8823104 1.4667743
0.6624762 6.5274105 0.7626997
-0.21840157 7.877599 0.33827767
-1.94736 4.623349 0.47021106
2.2774458 7.9018927 0.76027954
1.8120079 8.767417 0.783385
1.3122017 3.7899823 1.321875
-0.14943759 11.902659 -0.39160034
-1.7358103 9.941535 0.8488815
-0.09177161 5.5575676 0.8275485
1.0943661 1.569956 0.11922785
-0.361873 2.8710845 0.82988524
-1.1359556 0.6141765 1.032101
1.4594393 7.0824265 0.6328892
-2.0052466 7.1089635 -3.4400163
-1.4006251 7.090781 -2.4382017
0.13283864 7.9137135 -3.026823
1.8824027 1.3492408 0.8788593
-0.5130186 3.5325704 0.51049626
-0.5337541 9.101039 -0.21074954
0.58744365 7.1218605 1.6673464
-0.16303638 12.137387 0.54341877
0.1360416 12.35443 0.14269829
0.7378879 5.742336 1.3151637
-2.0499587 -1.1188049 1.512586
-0.2709784 6.619771 0.9582977
-0.045483958 8.210433 0.12374949
-2.1942673 7.1202583 -2.5621521
-0.54230374 8.795776 1.6931279
0.11309816 5.9295177 0.13495302
-0.8128728 9.178627 0.89983666
-1.1592926 8.028499 0.17709014
-1.6595572 0.50579137 1.0631309
-1.8042015 4.5995564 0.085847445
0.17225397 8.680433 0.6268058
0.6263518 12.840126 -0.017320644
-1.958333 6.6553125 -3.413014
-0.7977955 5.4728475 -0.08339455
-1.8840913 1.2904825 1.285124
-1.7323375 2.818911 0.38357908
-2.9753351 8.640926 0.5379298
1.2304602 4.888634 1.3820019
0.46083036 10.358634 0.6461176
1.8552718 10.481008 0.7798956
-3.4756007 7.719021 0.26812539
-1.015955 4.898497 0.8576877
1.0147309 10.093817 0.22361122
-2.024406 -1.3211299 0.73509055
1.308668 6.7142997 0.29831922
1.1722052 10.796045 0.7330786
0.7387225 8.216602 0.55805075
1.3082643 3.4097183 1.2964332
1.5721045 3.1924365 1.0724139
-0.02979473 8.374583 0.9024686
-1.3320603 7.559744 -3.8301053
-2.195657 1.7566608 0.42709646
-2.8055491 -4.5414224 -0.71832746
-0.7443911 9.111576 1.6266233
-2.1598048 -2.5185058 1.3046517
1.0400996 10.10556 1.449973
-2.0640783 3.8433607 0.43828687
-0.36901474 12.786542 1.189586
0.9756301 0.40039513 0.8806026
-1.9864669 -3.9209704 0.82225305
1.4122134 4.719686 -0.16634159
-3.6064682 7.398933 -0.8335104
-2.0977154 1.394753 0.2312269
-1.497301 3.1373248 0.7226603
0.6348273 4.58979 1.7523514
-0.84819293 3.4075067 1.3595848
-2.2592616 -0.03153853 0.92124116
-0.4364127 8.530483 1.4101833
2.1514904 8.66698 0.63448125
0.92124784 5.0866966 -0.38070923
-1.2519059 6.622603 0.8019268
-0.093536645 13.742737 0.23183036
1.1466647 4.2420316 0.93831307
0.055812467 5.637589 -0.5898924
-1.581083 2.7258577 0.7252002
1.1831114 4.952816 0.9875406
1.538132 10.211364 0.67445123
-0.7336151 5.5408273 0.47522157
1.0318587 8.768391 1.4043369
-1.5480527 8.528087 0.08621198
-0.92144 8.3261795 0.84086686
-0.43274 2.175668 0.56594944
-1.1989967 5.5349255 0.02341867
0.38744068 3.0058057 0.67512196
-0.60052794 6.3637037 0.4397109
1.538549 8.973923 0.5650584
0.23385127 3.617061 1.5340651
0.57751423 10.021625 0.8245966
-0.06245396 7.3076906 0.7182876
0.021459833 7.9252973 0.97333115
-1.8960906 -0.75638396 1.5911411
-1.1378971 0.23068549 0.53563845
0.106946304 11.435234 -0.030478444
-0.96041185 3.4626083 0.61196667
0.87927306 7.3242245 -2.0054226
-1.71376 7.793852 -2.3175495
0.30467877 9.949921 1.1288186
-1.455043 5.280962 -0.22368751
1.4995204 9.749669 0.53965294
0.5349603 5.9963627 1.0461127
0.7375976 5.3498807 1.342486
-0.9930688 10.26928 1.0673926
1.2407188 -0.8168117 0.27625626
-2.1666064 -4.592934 0.931047
-0.2232669 12.970684 0.85906804
-0.9754611 6.7713494 -0.23954922
0.097694136 5.1896567 -0.602852
0.5961357 1.1270593 0.6663706
0.26454356 8.5018215 -0.21059328
-1.4765445 2.0809224 -0.29084697
1.320494 4.9177046 0.580639
0.2505905 6.5521684 0.47009593
0.30068997 9.052761 0.5769716
0.47534063 6.0002456 -0.07184098
2.0207384 1.8888407 0.42678773
-2.59859 6.6436434 -3.0484324
1.8184584 1.0651261 1.1465379
0.8893268 7.6467667 -2.0662498
0.13075893 4.2273483 1.1870326
0.46483254 9.212698 0.22294469
0.8993788 -0.7450551 0.57892275
0.52605796 13.380219 0.29077473
2.0743532 -4.1695395 1.0748155
-0.69918776 2.4412723 1.2098553
0.6857745 7.028126 1.3019308
1.7980266 7.1537275 -1.0009758
-0.4944774 2.3715222 0.9224389
-0.99268234 2.6191423 1.0137916
0.92597854 4.83245 -0.032828826
-0.8708829 8.244992 1.5641532
1.0971167 9.606193 0.43775967
-0.15225534 8.006829 1.6450107
-1.0131874 7.065273 -2.2914598
0.31657526 12.604703 1.023213
0.07077458 8.606169 0.1369809
1.0904622 3.8331685 0.63829476
1.2607765 5.6658754 0.1045558
-1.8300934 0.4045136 0.66207135
-1.0611925 7.3220778 0.5581387
0.47837842 4.4170103 -0.5170345
-0.43598142 10.101446 1.1243948
-1.8328084 2.3999622 0.5451173
0.9586848 2.296896 1.3318031
1.1930444 0.19179496 0.056801558
2.0027103 7.5253468 -0.896348
-2.2649877 -0.03566666 0.4996382
-2.203854 2.5132868 0.5612867
1.2657565 1.4987203 0.8756312
-1.1274627 4.0518193 1.5746734
0.6424651 3.6482117 0.1377045
-0.49149293 3.802271 -0.53549653
0.024477052 13.606943 -0.22142255
-0.6877622 3.0592482 -0.017547213
1.672122 -0.9896432 1.4436868
-3.56359 7.4524827 -0.06802474
-2.0383482 -1.8689482 1.4162797
-1.5438013 6.145628 -0.062673844
-0.0048615853 3.794023 -0.4521443
1.4939898 8.599557 0.2815804
-1.3974735 4.738909 0.7172098
2.0890045 -1.2882797 0.64103085
1.1327562 6.61345 1.3124878
-1.6535665 3.9772596 0.436684
-1.4788346 9.095086 1.2356634
1.6745214 9.74028 0.22310282
-0.49074453 8.126254 1.0853755
0.36460206 9.244083 1.276033
-2.1589375 8.194143 -3.5150623
0.63059264 3.5131955 1.5227871
-1.1413411 9.654972 -0.009052845
2.1900983 -2.1714468 0.74963933
0.45458362 2.5268068 0.23747173
-1.9370857 7.416478 -2.245757
-0.0958056 4.738276 0.07709159
-1.089041 10.193291 1.4669551
0.08289235 7.624657 0.35655364
0.602583 12.667114 0.363471
0.63383096 7.2519064 0.08511805
1.7496675 4.0217433 0.8416698
-2.1050746 7.922199 -3.3088005
1.2524287 2.2749527 0.356139
-0.80661905 13.115279 0.86349094
-1.356948 10.121076 0.96516687
-1.8094007 7.074455 -2.4253783
-1.4872348 2.31954 1.2612157
-1.0723187 3.0700142 0.6641933
-0.19861573 11.439987 0.73861396
1.260078 6.2295914 1.1406488
-0.24689978 13.273299 -0.12809788
1.0954353 9.426595 0.0103140045
0.92878544 1.572618 1.1150022
0.93884146 5.066069 0.4153626
-1.4199023 1.9737585 1.3176756
-0.6734417 3.4525971 0.97486293
0.9673485 4.622658 1.1165683
0.7534172 1.7597679 0.7582553
-1.9029633 3.1123247 0.70678693
0.8485835 5.3692904 0.6718829
1.0658411 10.728531 1.1126342
-3.167913 7.162345 -0.50088
-2.2659035 2.1140983 0.6041347
-0.8958336 4.4973598 0.9600123
-1.0238664 7.7872624 0.5156391
1.1814768 6.745377 -0.04729278
-1.5442988 4.526495 -0.23944797
0.6918689 9.409295 -0.075875536
1.3549469 7.602725 1.1993906
1.564252 0.6213884 0.47319302
-0.48554042 5.4120245 1.8672208
-1.933526 -0.8400817 0.63996583
0.08417177 4.562457 0.43182075
0.85154146 8.473914 0.2578506
0.4072052 8.804485 0.27781153
0.27816862 7.091068 1.4068933
-0.3102769 5.980584 0.13789766
-0.34266376 9.567461 0.22831094
1.5028003 7.4772463 0.79993844
0.52917653 2.7899249 1.024821
0.34112042 5.1826763 -0.065439835
-0.32287577 8.896746 0.09653399
-1.4538893 2.6997974 0.01594371
1.1080151 6.4888725 0.8575014
-0.84967256 5.639848 0.8495746
-1.1967897 5.9816594 -0.13346975
0.20168604 7.318738 1.782862
0.4961087 9.169317 1.660999
1.3009678 8.027908 1.2847981
0.8450796 9.723113 0.8259103
-0.09869572 12.307557 -0.4862718
1.5561826 0.29461652 -0.1765645
-0.9392307 8.509242 -0.21648185
0.44362894 9.64655 0.28416076
-2.257664 7.7760286 -2.711477
-1.7234092 9.79519 0.4820067
-0.2871462 9.923126 0.7505477
-0.58566046 7.875164 -0.24804452
1.0668368 9.038903 -0.035660036
-0.15193145 12.607374 0.09780742
-0.23418596 4.9069953 1.1469798
-0.0712032 7.2313533 1.39566
-0.3849464 4.5481615 -0.605226
-1.9353081 -4.624 1.336011
-1.5874262 9.723003 0.11717843
-0.06152584 13.171146 1.1359909
-0.69326395 2.6640804 0.12035615
-1.2080387 4.2980766 -0.0492348
-1.0954322 10.7368 0.48955053
-1.7613256 6.907739 -3.1378546
-1.6913903 3.7001944 -0.21577412
-1.9353279 9.088564 0.6648841
1.5260724 9.879678 0.95356464
-0.73249394 7.0700145 0.45248693
-1.4465045 2.474696 0.42870897
0.5155824 3.2789915 0.28989092
0.17713001 2.7742682 0.969297
0.78355587 6.17428 0.76756054
-0.9179237 4.0857806 0.17144743
-0.970622 8.966578 0.5681109
-0.77086544 13.111778 -0.18146963
-1.377847 0.93685955 0.5428519
-1.102743 5.077669 -0.023707498
1.6197714 4.574971 0.15435797
-1.6379696 0.2698632 -0.13107449
-1.6868384 7.7337146 -1.905368
1.3689517 6.3135777 0.46117318
-0.39252493 4.835209 1.5143133
0.4638648 1.4850856 0.7783483
0.045009036 3.445106 1.2056991
-0.9250546 7.6686416 -0.20762257
0.52896035 10.305661 1.1049864
-1.0593729 6.935542 -3.3727298
0.24427576 5.503804 0.20792651
0.7964966 10.950444 0.82916063
1.1602304 2.5788045 -0.38613823
1.9861952 -0.0901977 0.3165231
-1.0024879 0.95031303 0.76012456
-1.6312761 2.8938415 -0.29877603
1.6567831 -0.79525834 0.07991755
-2.8392472 8.65085 0.16442996
-0.7277625 12.371619 -0.23064616
-0.9281188 8.043291 1.1928078
0.5450434 7.922337 1.6516461
-0.9087546 2.6771033 -0.21620381
-0.5511331 1.7964206 0.46040705
-3.4267993 7.777586 -0.12288654
-2.188195 0.2849036 0.70566577
-0.8128045 7.1226363 -3.0955954
0.27241263 12.091004 0.4735884
0.8624051 9.378772 1.5984294
1.7291996 7.477399 -1.2040343
-0.44156802 7.6710687 0.9635532
0.5419915 5.6817045 1.6870718
-0.821055 13.383295 0.1000368
0.041721743 7.211111 0.3244533
-1.013448 3.018072 1.3750452
0.17094804 2.613133 -0.04399682
1.7968243 1.4363277 -0.006290079
-0.41044202 5.358497 -0.118032634
-1.2840526 7.8676577 -0.18290047
-1.7201991 -1.7630172 1.2554947
-1.987032 7.208292 -3.8261669
2.1147742 9.218588 0.22599638
-0.23586065 5.897624 -0.5493638
-1.5698692 7.4176745 -2.5690238
0.6708986 3.9690454 0.48131123
1.2609242 5.3107123 0.37483025
2.1941733 9.720002 0.93035626
1.7864764 -2.1562092 1.1342368
0.19949935 6.923798 1.7941598
0.54035896 8.767232 1.6576048
1.4419624 2.8153331 -0.33356023
2.2124186 -3.0713215 0.817312
-1.7796209 1.6220607 0.343572
-2.7064538 7.3146143 -3.0944643
-1.269606 7.256773 1.3982599
-1.4036962 0.2572161 1.2963933
0.16289969 12.24539 0.89219594
-1.5370075 7.1505437 -3.3774447
2.039398 9.627139 0.26025334
-1.1256917 7.271526 1.009492
-0.0010135269 11.950014 0.24866025
-1.3273952 0.24699917 0.1776556
-1.5886108 7.57827 -3.1444786
2.3154082 7.1793394 -0.38408852
1.2116071 1.8007354 -0.28907606
-2.6869771 8.284433 0.49296337
-1.3086253 8.702058 0.4204753
0.19326212 2.43512 0.7953285
0.61191 6.1267853 1.3874778
-0.9895983 3.702668 1.552878
0.2477383 8.371278 1.3878871
-1.0450313 1.8216438 0.6815604
1.9830304 0.67521095 0.37480173
0.93038505 6.837642 1.6197627
2.509996 8.623346 0.87577575
-1.3111569 9.358169 1.3733367
0.80521977 10.6733055 0.52421266
-1.3333881 7.0779195 0.7562136
-0.74030423 8.743814 0.85204035
-1.6840081 3.2245424 0.39384374
-1.1601212 6.926057 0.45372334
2.6204326 -4.0274506 0.24475822
0.42787907 6.949397 -0.36752662
2.2458398 -1.1219133 0.90425
-2.6507251 -4.293437 0.6804562
-0.26917097 8.725372 0.76195335
-0.84701145 3.0468032 0.98372775
-2.0733447 -3.573811 1.2076615
-1.7572353 8.899957 1.0152603
-0.8558595 2.6982803 1.3806351
2.1319895 -3.1960518 1.1518297
0.20151003 3.608827 0.17711031
0.8086403 2.467328 -0.3595396
1.5885444 1.3884405 1.1863409
0.5686054 9.419318 0.6224358
-0.3224552 4.4841833 0.38647616
-1.6822919 4.959495 1.0674901
-1.3923466 0.91055465 1.0172616
2.7257097 -4.6202106 -0.13177557
-0.26615095 3.2116518 0.610571
0.29702592 3.810932 -0.20110655
-1.0062516 8.171703 -2.6092148
-1.7788203 -0.35554564 1.5729314
0.31953427 8.333459 0.3355596
-1.158274 4.9548774 0.406184
0.5085379 12.340857 0.36976185
-2.8298023 9.025239 0.3665463
0.90048164 1.3457581 0.77134174
1.3189044 0.64524776 0.8289342
0.84463316 10.491428 1.3640825
2.0928273 -0.12269537 0.765371
-1.9547707 7.4148707 -1.8758428
-0.5638665 4.0925694 0.47391042
1.9775265 2.2696686 0.3300409
-1.7519842 10.252538 1.1638737
0.23826343 6.133371 0.42279232
0.74307317 5.502158 -0.40397325
0.88858145 4.9150677 0.760259
-0.9110034 12.837629 0.6388986
0.8289585 6.758767 1.0101075
-0.3251529 9.150244 1.6038367
-1.7449328 6.7055206 -2.2592988
-0.9091294 4.2806745 0.5750758
1.5142516 -1.472056 1.1558268
0.09615467 6.5943904 1.0125554
1.3243074 3.8055487 0.020894965
-1.3798819 9.667215 0.6683672
-2.2825232 6.591998 -3.2918859
-0.5181874 12.496121 0.053926125
-1.7820749 0.63918406 -0.18473051
-0.6637737 8.88257 1.2547479
0.14115223 3.576303 0.8566297
0.32298777 8.153577 1.0674785
-2.09619 8.049212 -2.9393175
0.11599396 7.322495 -0.3379088
0.36503145 3.6679695 0.48602226
-0.8310031 7.3887796 0.07462397
1.8651589 9.863429 1.1667476
0.4342378 7.4233203 0.37124884
-0.35036984 12.187774 -0.21356204
-1.278153 2.8443377 0.92747617
-2.1440468 6.8068347 -2.2595577
-0.6245585 7.3932467 -2.8523302
0.74415517 4.7090898 -0.52006394
1.8837157 -0.76414025 1.0538138
-1.0987396 3.662336 0.2024792
-1.0921744 5.309904 -0.33120304
-2.4823637 7.0043674 -2.9294014
-0.30721036 3.9034717 0.7195999
-0.45177585 13.63435 0.13517824
0.72960544 9.020145 0.5771912
-1.934097 -0.4049078 0.49178585
0.94250304 5.948774 1.0662234
-1.5418248 6.5305214 -3.0227191
0.82909894 -0.2957626 0.5003495
1.4435252 9.022079 0.16162722
-1.3522409 3.6747108 0.4644265
0.07267523 12.72763 0.79654855
-1.2313458 7.129122 -2.7911224
-0.9098076 13.003527 0.18886599
0.4065619 12.085262 0.1057467
-1.2161431 -0.13073364 0.7998999
0.6971422 5.237395 -0.1208428
-2.3274639 -3.856821 1.1023557
0.812349 4.043229 0.83077043
1.093482 5.235621 1.472608
1.4576365 10.005687 1.3360051
-1.3532486 2.2726972 0.05237023
-1.9121748 1.4551144 -0.05032909
2.162154 -1.6772679 1.3172303
0.7216541 0.3794761 0.5237836
0.27471536 11.9435005 -0.54267275
2.3599985 -3.643724 0.60748965
1.5035549 -0.14621535 -0.07972357
-0.21314138 8.058078 -0.2815546
1.736942 -0.14404649 0.6517512
-1.0960788 1.9921842 -0.25437653
0.15201671 6.2777452 1.3942093
-1.4699455 5.6946955 -0.18079762
-0.8541764 9.397286 -0.115709074
-0.7104079 1.5464694 0.22058477
-1.8963957 8.421372 -3.262127
0.8243313 1.2421825 -0.09159585
1.557529 4.987403 0.09621057
-1.1804613 1.9088016 0.15556665
0.21858205 4.61554 1.8518541
1.2005563 7.534683 -1.8890791
1.4863162 7.509819 -1.5331793
1.6925898 7.356724 -0.7950461
0.2257484 4.1371813 -0.5635965
1.1035329 5.5007195 -0.22852334
-0.69529927 10.81441 0.3870259
1.1464872 3.2095034 -0.12995346
-0.63888925 6.533346 -0.3677258
-1.3894998 7.538513 -3.4777749
-0.53272474 2.0794694 0.1646131
-1.290056 6.127871 0.6624167
1.7800761 0.67414224 -0.0074929334
1.2993131 2.0654037 1.2451917
-0.56830734 8.392047 1.7551419
-1.0960683 5.0809 1.6170617
-1.3257229 2.4319153 0.8843794
-1.5390291 7.353676 0.05952998
-1.6354338 4.933514 -0.068543874
0.70211846 2.2036386 0.17805369
-1.6224416 8.54317 0.95355576
1.2284093 3.0513244 1.1833385
2.6123466 -4.578052 0.28679466
-0.4396981 9.519959 -0.14058982
0.4762507 9.609983 1.0030276
1.9136727 0.2612509 1.3036985
1.9770068 8.725138 1.1064001
-1.6114217 6.5100765 0.24342364
-0.17557062 11.574023 0.32544023
-1.256027 6.6563945 -3.2339566
-3.1402054 8.3342285 0.28993917
-0.8871388 1.6786383 0.99523336
-0.10913081 6.553532 -0.16684861
-0.89804995 4.7059684 0.5813725
0.041932028 13.281914 -0.48846832
-1.6041068 -0.2941652 0.7806969
-1.0553435 6.812018 -2.5703394
-0.84057134 9.562594 1.238679
-0.8535858 2.0041296 0.416796
-1.1738535 0.8984525 0.005003998
-1.8761305 7.307797 -3.1688185
-1.3938347 0.59299743 0.7932433
2.5570955 8.130587 0.47656912
1.5921435 -0.7495844 0.45527893
0.80563146 6.0109434 1.6738343
-0.17864467 11.485878 -0.3155753
-0.61094475 5.8808436 -0.15131764
-1.8255587 7.9365396 0.53861123
-0.836111 4.8325443 0.18571086
-1.4928638 6.095707 1.1802506
1.3951882 7.1719127 1.0924203
-2.225627 1.3440455 1.0467968
-1.3674656 6.8775373 -3.6115997
-0.5106628 13.202104 0.19338576
-0.93519145 7.5595784 -2.202844
1.1157628 -0.48779038 0.36805898
1.2187507 5.561226 1.2858987
0.76383084 3.2442646 -0.11446375
-1.5325445 8.43211 0.5415957
-2.8663466 8.248016 0.10885587
0.13503577 3.2918682 0.48972455
-1.5562948 9.280705 0.8850104
1.1684451 8.969773 0.75136447
0.5464548 6.572742 -0.36216956
1.2679327 10.400002 1.2824463
-1.2518178 -0.11539175 0.39350423
-2.337851 -4.5970383 0.46080357
-0.99403244 6.512852 1.5621979
1.45442 2.5342546 0.046467897
-0.5864162 4.7033353 -0.26255015
1.4746912 0.7111766 -0.22115871
0.3965146 11.038912 0.92673856
1.5423989 1.5793837 -0.24232718
1.4724729 -1.1711832 0.8659463
2.294969 -4.2959957 0.27210152
1.8104639 0.01672455 0.0043854374
0.6024556 4.5436153 0.1261624
-1.1479889 7.897979 -3.6301093
-0.45909 8.065658 0.07233084
0.21977223 8.162286 1.7494526
-0.4647465 3.8222098 1.0928298
-0.94909555 2.280646 0.1361358
1.67919 0.8327619 0.8616022
0.55529714 7.5069427 1.6583949
1.6950649 4.8160467 0.4395141
1.4186777 2.3915107 1.1120046
-0.12506036 7.3955407 -0.016194945
-2.1583133 7.3126435 -2.9127698
-2.6931376 -4.1931133 0.29180437
1.7455716 2.8943129 0.8292553
-2.014844 -4.29275 1.5588704
-0.98942393 7.574513 -3.576217
-1.2475599 -0.65837663 0.88193834
-0.8546292 3.3226688 0.2724184
-1.5789645 -0.3713311 0.33592537
0.68259174 6.6152973 1.3429519
-1.8664756 5.010292 0.28011262
-2.090442 7.7721634 -2.3682637
0.84182036 2.5424871 0.3599712
-1.3087143 4.3981333 1.0758833
-0.25936973 5.035931 -0.28224966
-0.6447087 12.0068865 -0.013246978
1.5589763 3.2984238 0.4183403
-1.2649021 7.45545 -0.18003364
-0.8053551 1.2220678 0.47869018
-1.0666915 5.366552 0.3259108
-0.9638141 6.887682 0.82573605
2.5394907 7.712372 0.16158468
-0.2876317 5.3663564 -0.5484309
0.14348947 9.403964 0.53717655
-1.8175015 7.0211883 -1.9980043
-0.38667867 12.772953 -0.6560224
-1.4074622 1.5256504 0.12929621
-1.1117172 2.6134 0.13929498
-0.56793594 5.673383 -0.4726588
-3.1065452 7.003242 -2.9226863
2.2964325 -2.8088105 1.1081575
-1.6219597 4.5568647 1.2309586
-2.0195584 1.8541945 0.10199003
-0.5740279 12.408274 -0.5995359
-0.654033 5.7672987 1.8231769
-0.7888835 9.599869 0.25594932
-0.4683493 5.7982 0.79176486
-0.05299413 6.765586 0.24898376
-1.1383473 9.456861 1.00264
-1.5854073 2.4850426 -0.29358363
1.9031775 -2.4150653 0.90254235
2.025897 -2.495742 1.2626607
-2.6580904 7.4476266 -2.420286
0.75742644 3.9554977 -0.16504003
-0.9636111 6.1883516 0.4525305
0.729422 7.1347165 -0.27382186
-0.6817954 9.811213 -0.037631184
-0.47476476 9.8719635 1.4974357
0.45453885 3.989411 0.15203802
-0.86031187 6.16672 -0.25775608
0.9659539 5.28279 1.0511396
0.840871 10.21974 0.6035064
0.9313728 6.9544864 0.1971088
0.8309086 0.06689719 0.37302566
-1.1001316 8.194786 -3.2991552
1.0276924 3.6275733 -0.15326239
-0.9375018 8.105979 -0.19176582
0.49115443 2.340328 -0.1726993
-0.59027 11.194194 0.26852158
-1.5248077 5.403244 1.1717438
-0.5514741 8.309902 -0.23381934
0.39649236 9.658663 -0.0679485
-2.2703419 -0.3624855 0.23811252
-0.13403714 4.33687 0.059309725
-1.7493428 8.486224 -2.604694
1.4671905 -0.10359125 0.9724906
1.8662332 0.3361938 0.20327085
-0.08777151 3.795147 1.231105
2.1085846 0.9618525 0.91396403
2.1316106 1.1286746 0.5570897
1.475256 10.137203 0.28030533
-0.2967553 5.6964226 0.4682207
-0.50729644 8.705224 -0.24345449
-0.6865299 3.7868865 0.7540035
-0.5190332 3.148398 -0.3908508
-1.351905 6.49084 1.3398144
2.2534385 7.630202 -0.13082522
-0.7695595 12.462834 0.7177849
-0.6123947 13.40644 0.80792034
-0.2263192 4.14495 -0.56240207
0.44496688 2.7149103 -0.31647715
1.0341283 2.4567823 1.007497
1.2707053 5.084157 -0.19094661
3.0844736 -4.573374 -0.17552827
-0.59217757 3.6577492 1.4577218
-1.18974 3.5997825 1.1778404
1.1821458 4.179355 1.3937662
-0.62001556 9.74596 0.55961794
0.33385384 6.9503255 0.33026978
0.5769121 8.630772 0.59170437
-1.3646747 3.7659736 1.4723874
-0.8152156 2.0677507 1.1271229
0.38961878 7.291476 1.0321683
1.0221045 9.453228 1.1591144
0.65884244 5.6019206 0.9745389
-0.8184009 2.247578 -0.21110843
-0.6333359 9.502666 1.5986192
1.5080009 4.819212 1.072236
0.17512713 6.525933 -0.4917266
1.6097674 9.210792 1.2474414
0.9959375 3.5889146 1.4103177
-2.1889434 7.131226 -2.0702398
-2.1736283 -0.6962486 0.15058826
-2.2176805 -1.5055983 1.3453478
-0.2770919 6.4865103 1.760785
0.8460418 6.7576756 -0.25021863
1.8405495 3.083072 0.07378082
-1.892308 3.8425558 0.80784905
0.9734773 8.29418 1.299947
-1.359689 10.438126 1.2783673
-2.0723395 -3.1779532 1.2561003
2.2898693 -1.9020519 1.016577
-2.9849632 -4.5784082 -0.36294466
0.79412913 4.2422004 1.6183118
-1.9532763 2.7383456 0.82456964
1.9921798 2.2198682 0.74144524
0.026343094 9.68813 0.87550724
0.4467935 6.417036 1.1548849
0.8712619 8.514857 1.636645
-1.9456481 4.2385364 0.2721991
-1.0364163 8.770432 1.1622005
0.5231881 3.9528916 -0.55645436
1.5098811 4.3491807 -0.102359176
-0.84239364 6.0500565 0.8343706
0.68310875 9.0660515 -0.1402936
-0.48272 3.1565876 0.2565061
1.7892673 0.48591226 0.7705392
1.3365877 1.8601433 0.47185215
-1.3718361 8.199276 -3.57989
-0.58294505 4.5150437 0.67008686
0.38569996 10.057365 0.4141765
1.6868873 4.165335 0.17667098
1.194393 7.5408387 0.023265447
1.2161632 1.3654754 -0.26011136
0.26721653 11.705617 0.24453984
-2.0639849 8.369047 -2.407669
-1.6684729 10.319455 0.7501036
0.5768735 10.024867 0.07968572
2.2898288 9.320697 0.93244827
2.0899663 -0.116320595 1.1644747
1.4567658 1.3317995 0.12182884
2.4988775 8.561583 0.53254426
-1.7747871 8.210691 0.7949259
-0.12178821 11.214011 0.31199092
-0.04076139 9.864534 1.49092
-1.2026408 8.102913 1.5013732
-0.1539401 5.9838786 1.462747
-2.3376136 9.655269 0.23067772
1.079355 2.8811462 0.54678893
1.3132325 4.133198 0.25486872
1.1848685 1.2261447 1.1233026
-1.1374643 7.814833 -2.7079422
0.18904196 4.902139 1.133476
-0.23541649 3.1407402 -0.14502254
-1.1922826 8.374229 -2.963576
-0.193314 3.4159052 0.24501461
-0.115035295 13.382346 0.2456222
-1.1945264 4.5117655 -0.44059038
2.1823764 -1.2651458 1.2848452
-0.72659695 9.918758 1.1544869
-1.8486553 8.096312 -2.0601072
-1.9869183 -4.2284284 1.1048868
-0.6641118 6.4989066 1.8148052
-1.9018165 -0.86091363 1.1525809
1.4786378 3.6098382 -0.29149792
-1.7394332 -1.5747159 0.9305764
2.081442 -3.4533474 0.8043698
-2.383769 9.22514 1.0063125
1.0193077 1.9514205 0.110588975
0.058751278 7.0497103 1.0286076
1.6510168 5.095809 0.8022017
-2.627829 9.372882 0.2956117
-0.4995471 4.146273 0.105098195
2.6841004 -4.191171 0.92230153
1.0114962 4.250926 0.51818
-0.011958305 7.5079713 1.0847014
-1.7074894 3.066307 1.0629953
1.9556757 2.625487 0.6033933
1.4863259 4.054017 1.1229434
0.8358705 4.263617 1.1910137
-0.0011513736 4.5652323 1.0799304
-2.1018496 7.779797 -1.9691508
0.6566936 7.661193 -2.3997326
0.7649085 4.476122 0.79679763
-2.2870622 -0.37574917 1.1256207
-2.2196908 0.671958 0.5304462
-0.046484187 5.3604074 0.4724168
-0.50315243 6.853027 1.8355521
2.2606845 7.745322 0.3995835
2.5835598 -4.598333 -0.6802034
-0.723478 5.054501 -0.17081068
-0.26523632 9.520007 0.65626127
-1.7838839 -0.7232616 0.22137073
-0.18813221 4.6472645 1.8646963
-2.6927938 8.506233 0.81524074
1.4590738 0.4455405 0.17616458
-2.6458728 -4.6000896 0.10467225
-2.5134096 -4.236312 1.0933864
-1.214282 7.308327 -3.1820266
-1.5895312 3.5524588 0.17272644
-0.87832755 7.8009267 1.5702467
-0.49880725 12.443096 1.0591352
-1.4325882 3.9147165 0.055488314
1.7111627 1.2867312 0.46999708
-1.1843189 7.2979364 -2.0497096
-2.6886334 9.358694 0.68007064
0.012549105 3.1753292 0.8665131
-3.133883 7.5294757 0.083758034
0.023089621 13.174672 0.6168835
-0.47108397 10.535732 0.16366544
1.8688674 1.8521539 0.03584668
1.115232 5.9765615 -0.072241396
-1.3220115 4.7191195 0.04740514
-1.5082638 7.5529766 1.1208333
-1.6312112 9.368955 0.47384846
0.61813754 5.362769 0.26110026
-2.5072289 7.9942822 -3.3032913
0.64357674 8.605701 1.2921966
0.80233663 3.318013 -0.50093806
-0.89691126 8.578217 0.48455587
0.3030942 13.046235 0.96433395
1.4079015 7.44221 0.37887552
-0.22440842 5.3546805 1.1499778
0.26609728 7.503838 1.3938358
-0.10578099 4.937823 0.43104398
-1.4232324 5.088567 1.3570431
-0.93797624 5.844565 1.2089182
0.8315585 0.76933616 0.76273525
2.038321 8.365192 0.9027214
0.24002339 4.543165 -0.19354531
0.91314375 3.2751777 1.2895255
1.6278383 2.0763645 0.2473695
-1.0456237 5.111568 1.2125984
0.27714944 12.312594 -0.637984
0.07989093 8.019284 0.56633383
1.9047183 3.043918 0.48773134
-1.2152905 2.0675578 0.96344733
0.43798384 3.1450636 -0.44008955
0.00994525 5.5759974 1.4258773
-0.1890965 11.782195 -0.007918653
2.146759 7.2381296 -0.7556652
1.1368209 5.9093266 1.3938951
0.29561433 2.834396 1.3510352
-0.5514108 8.949971 0.5051685
-0.25749898 10.236696 1.4272786
-1.243772 9.245569 0.6394252
-2.1335242 7.5316076 -3.4008904
-0.024508044 8.617963 1.2647781
-1.2135874 10.79263 1.1281276
-1.1108509 5.313617 0.6727155
1.0735446 9.060847 1.1152182
-0.67352563 10.466464 0.5768934
-0.49866736 4.8424387 0.4207496
1.2184204 2.6599684 0.30390868
-1.6495278 4.201959 0.939983
-0.1691547 6.5073433 1.3801855
-2.5478017 8.067611 -2.9075208
-1.5267143 -0.7141207 0.52703923
1.585952 5.628469 0.3918489
-1.4381001 8.022141 -2.0650032
1.5047419 0.16470927 1.3316975
1.1678495 2.6368213 1.2979785
0.21791555 8.586392 1.7234356
2.2733877 8.0655 0.21314293
-1.7279993 4.1708236 -0.11288888
-1.3692217 4.7674947 1.4792954
-1.630982 5.7378144 0.99996734
-0.9072994 8.095049 -2.9613004
1.8264487 3.6583643 0.707292
0.80263495 2.800147 0.7660655
-0.7621053 8.365796 0.123667605
-2.0047982 8.482933 -2.884334
0.6665667 3.161134 0.97225505
0.45665064 3.3835163 0.7495174
-2.066523 2.6538897 0.23782077
-1.7798872 8.73075 0.31647992
-0.008234362 6.340509 0.72888494
1.5183672 1.1990161 0.8176444
2.2975788 9.442191 0.5667999
-2.161442 8.817598 0.4123657
2.1873245 -0.7847082 0.6761084
-0.43144122 12.899342 -0.08783176
0.4159361 12.601776 -0.42652342
-0.4508003 4.5354476 1.0419773
1.2251855 9.242382 1.4442093
-0.8337722 6.247038 1.2826082
0.24752045 7.1299973 -0.023739371
-3.430666 7.071066 -2.0721235
-0.2566794 12.119314 0.94598347
-0.27672687 7.2424045 1.7347181
1.3077816 7.1070485 0.2178342
-0.34940004 7.2649336 1.0714046
2.1038983 -2.0810328 1.2935516
-0.32574245 9.696904 1.1505706
1.4009756 4.091203 0.6410656
-1.0056516 4.073648 0.8839759
1.1303321 9.17675 0.36893365
-0.051300343 12.015694 -0.77042526
1.7781239 3.9165912 0.43264204
-2.4992664 8.512904 0.23647685
-0.6905933 4.572481 1.3993272
-0.24304143 2.7691982 0.041806776
-1.811209 5.385664 0.4394741
0.49539167 4.7028937 0.536697
0.09807526 9.0292635 0.17382532
0.47304437 12.479927 -0.030337969
-0.5514347 6.1123204 -0.47763583
-0.88595575 6.4335814 0.7932148
1.4699619 10.584898 0.9875304
0.2820548 7.9683394 0.09737523
-0.09500876 5.3914905 1.807744
0.3444154 8.287355 0.70510954
0.5070617 3.9011574 1.6418438
-0.88732857 10.456539 0.21974516
-3.2713747 7.442603 -0.772437
-1.5974704 6.647854 -3.4029558
2.1885903 -4.318589 1.450416
-1.6471957 5.7701006 0.15076384
0.02298228 12.82206 1.1850634
-1.5641699 1.86931 0.06657708
1.2375731 4.8649945 0.21036482
-3.1674461 7.618533 0.47047344
2.4108734 9.006169 0.607947
-1.1350877 3.3368938 -0.3935381
0.04844217 6.868788 0.657282
-1.3807212 0.649109 1.3410244
1.084684 0.64057523 0.51066583
-0.10639461 11.103619 -0.10063786
-0.6508059 3.1607687 0.6715096
0.8806997 6.5366096 0.124065794
0.15534897 6.07514 1.0635582
0.60276735 1.3572507 1.0800453
-0.7308851 7.1738915 0.8372395
0.398582 10.559986 1.350616
1.4237415 5.9820576 0.22208521
-1.5781672 8.153913 0.18723153
-0.60083145 9.318025 0.5577978
-2.1049323 -0.39015713 1.4652251
2.5487952 7.4839754 -0.2141608
0.465167 4.210527 -0.17778474
1.5986949 1.6106436 0.73269165
1.8439374 -1.1604698 1.052487
-2.2979228 8.328404 -2.7267323
2.1881506 -2.644753 0.7931432
0.25228286 13.5563545 0.48288444
1.8166866 9.933075 0.67394507
-1.3538607 6.706917 -2.36439
-0.04873978 5.1621284 0.08458711
-1.8980887 -0.38270614 0.046447568
-0.16810301 4.6090713 -0.27442375
1.1911172 10.439408 0.41226625
-1.1454116 7.7245145 -3.1594427
-1.3293297 7.543849 0.7474246
-0.5662236 10.191788 0.037650347
-0.22510666 9.234137 0.33130187
-0.41833702 8.182971 0.42542946
-1.2733363 6.6145983 -2.7909694
2.3712516 -3.4335692 0.9613247
-0.90435207 6.6412854 0.436594
-0.93787134 3.7471802 -0.48481706
1.3018205 10.15957 0.9947355
1.383218 8.874464 1.3363132
0.17557518 13.41632 0.888501
-2.524239 7.4136987 -2.7820692
0.51525134 8.50876 0.07167489
1.1525874 8.787806 0.38267347
0.929379 5.579161 0.346819
0.96149176 6.7819486 0.5752483
1.2007334 0.2822858 0.4790611
-0.1929994 9.340723 1.0305363
-1.8317223 2.1300254 -0.14738068
-2.1509907 9.793696 0.65535045
-2.1080143 -1.7322472 0.7936796
2.0436766 9.085196 0.6321171
-0.18961473 6.2304053 1.1069136
-0.7228465 6.1317477 0.12877832
1.7726333 0.11090781 0.9700112
-0.66138 1.5214806 0.68216854
0.16156009 7.726849 -0.3101824
-2.8712602 6.705633 -2.8394728
0.1299078 4.9365096 -0.2681079
-2.070451 3.4125159 0.5193176
1.4884422 -0.28476262 1.3567064
0.7176531 8.397791 0.9366017
-1.7023432 5.372908 0.050244424
-1.9355296 8.057798 -2.5620022
-0.57551396 6.6651745 1.4405545
1.5739127 1.8071067 1.0775648
-2.0854418 2.3585446 0.8732913
-2.1242383 0.9748012 1.1910831
-2.1181574 2.0083468 0.9621031
-1.2105354 7.650957 1.4869735
1.192817 1.8620085 0.89261496
-1.6470495 -1.0766506 1.4929258
1.1130999 9.834973 1.1300726
-1.0539088 1.5785843 0.35949045
-2.6328542 -4.6256256 0.91915905
-0.53745353 6.0236588 1.1058333
-0.27947104 2.5244799 0.6537393
-0.26494122 4.4953613 1.3766472
-0.71396726 8.799327 0.13963407
2.0327156 -4.6008544 1.2843102
-1.4699979 1.2354251 0.880717
1.1546772 -0.15356287 0.21636574
-1.95669 7.672022 -3.0153096
1.8083079 -1.3804443 1.4249023
2.300374 -2.3609223 1.0516584
-1.7110039 3.5801995 0.57135415
1.5159291 10.628696 0.60885465
-2.3732939 7.6698895 -3.0740824
-0.5288975 9.295958 1.2540855
-3.3250208 6.892609 -1.8098116
0.14093786 5.284056 1.105759
-0.5242763 4.939557 0.7919888
1.1191843 8.029065 0.59487355
-2.0142648 9.88755 0.21385251
-2.647049 -4.335367 -0.17092286
-2.0174046 6.5866046 -2.5654716
2.0962384 -4.253824 0.63380265
-0.8879036 3.0727336 -0.32196337
-1.6463894 1.5702361 1.1572613
-0.13499542 12.995907 0.19132979
-1.6563703 -1.1199815 0.90746474
-0.030205833 6.159583 1.7740837
-2.1521227 8.850191 0.9620512
1.5448383 8.927936 1.0005792
1.2476362 9.647524 0.8249942
-1.9109917 1.023623 -0.04833988
0.21289895 5.2721276 0.73967546
-0.40465045 5.219702 1.521839
-0.9778521 10.059865 0.07465824
1.7656758 3.420557 -0.04051315
0.8625693 4.9186244 1.6277994
-1.572906 7.213014 1.0449966
-3.2028656 7.5348125 -0.33471817
1.955236 -1.573696 1.0337214
-0.27210924 10.653213 0.46929023
-0.70158094 3.455138 -0.4866772
-0.04554904 11.074847 0.9130259
0.25459072 5.6534777 0.9860454
0.61103475 10.19338 1.5078018
0.84096414 8.017695 0.9736326
-0.06461343 12.89284 -0.27348128
-0.12218696 4.1380386 0.4221598
1.1984758 0.7603996 0.18548201
-0.45884097 4.3267775 1.6576825
1.6314625 5.2294636 0.43823314
0.8079902 4.4454684 -0.20049125
-0.27387932 12.202026 0.15549056
-0.5403554 8.3722515 0.7567555
-2.2552233 8.429054 0.57868165
0.26138788 10.353231 0.15972053
-0.75949496 12.257071 0.24694206
0.2083063 11.017787 0.1806692
1.7769743 -1.7985283 1.3143198
-1.0816896 8.826497 0.1559426
-1.1568435 7.197423 0.1761263
-1.147511 7.9166303 0.8697503
-0.22840779 13.416069 0.9187239
-0.59175617 7.994204 1.7844329
-0.38150376 11.35623 -0.0096119465
0.056968164 6.361394 0.18059506
-0.4552738 5.374751 0.7523055
0.18169174 10.227118 1.4255083
0.38136542 10.677929 0.8286927
0.99686635 3.840279 0.24450807
0.15269071 6.522055 1.7945178
-0.1525465 10.329359 0.071210414
-1.2729977 8.245134 -2.3229988
-0.22880195 6.578504 0.5452547
1.4012984 3.1192064 0.7245976
-0.50553995 8.575872 0.43716252
-1.6500751 6.828785 0.8858343
-1.0780095 1.8477081 1.2909031
0.0038093997 2.8266208 0.6236902
-0.015157653 10.708184 0.14269468
-1.9308338 -1.2902522 1.142258
-1.1828473 7.2133455 -3.676238
-0.25818482 5.7866116 1.8096654
-0.6158776 4.1693063 0.89198554
0.63558424 3.5979989 -0.25463963
-0.059483804 7.462391 -2.949401
-1.849616 10.670082 0.70290774
0.27124804 4.787198 0.14373472
-1.8185936 -0.4362369 1.195445
1.702413 10.26642 1.1159595
-0.74453574 7.779975 -2.9496384
0.91957957 10.1888485 1.0395608
-0.30097353 10.863248 1.1524781
2.026664 8.494728 0.19499008
0.6321741 4.954074 0.20570683
1.358023 4.503735 0.43919075
0.80955374 4.217038 0.16950652
0.27507603 7.612664 0.7064863
-1.8495209 9.09819 0.24080193
1.9719341 9.467844 1.1695461
0.93162256 7.4270267 0.2765869
0.968286 7.9216375 -0.15379877
0.14914843 11.26424 0.65053904
-1.8301992 3.4698453 0.9475657
-2.864161 -4.578248 0.47241062
0.7714741 3.5863683 0.5439275
0.25744537 2.8959312 0.28436545
-0.8478742 7.573628 0.822483
0.45570984 12.507479 0.6979263
0.9324889 0.060023773 0.7472974
1.5627674 2.8558388 0.42988846
0.13710058 6.0861664 -0.54371804
-0.90466547 7.2535915 -3.4367683
-1.1702138 8.257431 0.52069074
-2.2172344 -3.6430984 0.76156837
-1.5158569 9.340132 0.03433022
0.4990889 3.7784688 0.83144796
-2.162329 6.9137764 -3.1328092
-1.4024006 3.017753 1.261565
0.8562171 3.5495007 0.9390865
-1.4432497 -0.90366155 1.194336
-0.38187927 9.934779 0.31090128
0.28915125 3.2387662 1.4865078
-0.7468908 7.3717694 1.1890332
-1.6447387 6.5189986 -2.6192462
1.5797651 -0.36697885 0.3864575
1.4105715 -0.4793821 0.06336077
0.7877349 8.895889 0.21017176
