-1.3401295 1.6238109 1.3506064
-1.2829434 4.4209485 1.5053041
2.2399006 -3.992773 1.3981767
-1.2591665 4.263395 0.32903248
1.232499 2.7734053 0.8070685
-0.3648908 8.547176 -3.327089
-0.73630625 7.652965 1.2327511
1.3293931 5.85255 1.0536635
0.7411965 5.5829196 -0.06063626
-0.69187176 3.8123076 0.19225644
-1.2026167 10.950807 0.8998547
-0.4881184 7.862935 1.4212074
1.466606 4.3526955 0.8872032
-0.901318 5.451146 1.2863259
-0.72114545 2.797252 0.7132228
-0.6210671 13.077763 0.6179448
1.3190559 8.496245 1.291692
-2.4332995 9.96662 0.5470891
-0.7739708 10.063544 0.43630785
0.7970943 2.9651177 -0.5102696
0.85806525 3.9506612 1.4525721
-2.2774053 1.9455134 0.87978035
-0.64539295 4.7085276 1.7434343
-0.58593243 7.2240777 1.793658
-2.1544664 1.2725201 0.27572596
-0.71660036 6.408346 0.9900139
-0.46914294 4.6124253 0.0097690895
0.39980832 10.993958 0.5906993
-0.34325176 13.293434 0.64649725
2.2391465 8.904858 0.1637525
-0.5610937 4.9999943 -0.63353604
-1.3715243 9.61914 1.4982625
1.0904381 7.333679 0.90239364
1.964746 0.72765106 1.0547924
-2.3645666 8.649766 0.6169391
-0.19560678 9.130086 0.7563139
0.6839018 9.766509 1.5988665
-1.8449975 1.0233116 0.45513868
1.6036961 2.447502 0.87581813
1.2919692 2.1216729 0.7150846
0.63031244 2.6388335 -0.061636504
1.4978361 7.4029045 -1.9083658
-1.4019637 4.6100645 0.9001412
-1.259348 0.18498501 1.1887511
0.8593757 2.086103 0.8799261
-2.0812469 0.4572484 -0.0021469498
-0.2289481 5.711553 -0.3053051
0.34488705 7.220148 -3.0053792
-1.397595 8.29053 -0.13421127
-1.9185735 1.9674948 0.59403205
0.69572157 1.7482128 0.34609628
2.5104222 8.301714 0.7280601
1.2189747 2.039863 -0.029868823
1.5751212 1.911218 -0.26991722
-0.56015974 8.085013 -2.4035904
-0.33280808 8.920567 1.2754538
0.49391687 10.758333 1.2180446
2.4233878 -4.6160655 0.2557556
-0.67516464 2.5566347 0.39726716
1.0938154 -0.7179061 0.9320168
-0.80161625 8.117778 0.42722085
-0.6531531 11.6806135 0.32147843
0.9836359 3.4255228 0.1480027
0.91938436 3.7254844 -0.6138912
-0.89869493 8.122655 -3.70245
1.301753 1.0050035 0.47507244
0.041507646 10.82254 1.2261941
0.48972294 4.262395 0.45192873
1.437183 9.445996 0.55041736
-2.0721116 0.7948814 1.2785692
-1.2384802 2.295945 0.5176881
-0.5922377 9.200628 0.17217131
-2.2997408 -4.5787644 -0.063232176
-2.1381776 -4.5990014 1.6910006
-1.6534227 0.066257395 1.0915025
-0.8570459 4.686998 -0.61729485
-0.96534544 8.844794 -0.2068852
1.0763428 5.62223 0.8694784
1.0637802 6.2979407 1.4975082
0.82643217 5.9807467 0.060780685
-2.4880986 -4.5850034 -0.4609566
-1.6920992 9.360742 1.3060805
-2.4381695 10.044237 0.9121893
-1.3890992 3.5129888 0.8205459
-0.1999138 7.0236177 -0.099756196
-0.38772535 7.5690675 1.75865
-1.9126388 7.270019 -1.8440285
0.31444088 7.86116 -3.5258985
0.26482493 8.060064 -3.1579654
-1.4861505 9.617344 1.087964
0.5409864 6.553533 0.35103056
-0.7259897 4.010072 1.6038852
2.4134746 -4.2603874 -0.009185475
1.161155 8.277146 0.03190331
0.029055106 8.055088 -0.30982804
-0.38292167 5.046509 1.7953959
-1.2782762 1.4497232 -0.15697245
-2.1481981 -3.129184 0.9570496
-1.7434326 0.92065686 0.8445546
-0.62200433 5.575862 1.0567886
-1.4784808 0.7541419 -0.10707477
0.7996429 6.4871926 1.6559161
1.4136425 8.175661 0.33332223
0.003044221 8.978104 1.5863307
1.47251 0.13590224 0.23947857
1.9416504 0.20704593 0.45767292
0.6618954 7.1376514 0.3849319
-1.8319356 3.3901832 -0.16326796
-0.9487375 9.179369 0.2371425
0.6640582 7.469568 0.65370655
0.8113183 8.296962 -0.19976851
0.4292166 9.475891 1.6118426
0.5261425 4.7625413 0.8781229
1.5845131 0.34385246 0.52119005
2.1711755 -3.295735 0.7531655
0.46185228 8.340243 1.652222
-1.088191 9.318874 1.6322173
-1.116918 4.58245 0.21164182
1.4764391 4.03247 -0.26145065
0.7759172 0.83358 -0.009682813
1.8852831 9.627652 0.6309808
-0.9684351 7.7517595 -3.8736727
0.29211 8.796934 1.2766966
-0.20662525 4.296967 0.7084244
-0.1888853 10.68622 0.91578126
-0.44484484 12.620663 -0.17277169
-1.2992237 3.3021955 -0.35186315
0.031055605 7.28957 -2.293542
-1.7846196 9.453469 0.89970493
0.6682404 8.8378725 0.99765104
2.392215 -4.6076174 -0.22579317
-0.67208475 13.4927225 -0.13452272
-1.3604316 2.649255 -0.34441814
-1.4579817 7.8987885 0.54595155
-0.3114693 9.914529 -0.00044006243
1.0325079 6.0011954 0.3494987
1.1246105 4.733122 -0.4326919
-1.0785421 7.2508087 -0.29530865
0.2705621 4.5194025 1.375633
-0.5200764 13.633197 0.44394132
-2.6325128 8.886561 1.0993438
-0.22460495 7.708716 0.6620124
-1.1462933 0.27755535 0.718706
0.08275567 9.37538 0.20623113
-1.9632858 -0.18763345 0.8766215
-1.5240492 4.290536 -0.35079336
3.0433202 -4.6009502 -0.542802
-1.4088829 4.9889812 0.903912
2.5509622 -4.650319 1.2313588
-2.2080896 -2.3570726 0.9268589
-0.5228093 12.822262 1.2514488
2.6824353 -4.6190057 0.6829306
-0.76387644 5.087933 1.7375566
-0.5018087 12.1519375 -0.6104985
0.46050668 2.2503192 1.1994319
-0.72312343 7.9111824 0.78590125
-1.4069483 7.6231604 -3.168744
0.8064771 8.943255 1.6486553
-0.6694747 5.9807863 0.40179
-0.8902838 5.475364 1.6727674
1.5362793 8.271627 1.0711678
-1.461773 5.260992 0.15934968
1.0307157 7.4428005 1.2986208
1.7005558 -0.8796022 0.6074049
0.04647644 6.9199758 -2.4834888
-1.1129307 6.972923 -3.048259
-2.0923939 9.525777 1.19967
0.043014217 2.5519788 0.23027174
0.50600946 5.173403 0.9321508
1.3660812 3.374038 -0.012037364
1.6859043 4.3331594 0.51379263
-1.0804754 4.7709656 1.6136261
-0.07141874 5.1758313 1.3862288
-1.7223616 9.36635 0.17277591
-1.3368104 9.14987 0.32665285
-0.32117355 7.705534 -0.40682176
0.44007617 4.4442234 1.008429
2.235249 -4.6357336 0.7594272
-0.36990148 7.8706403 -4.1677346
-0.052054442 8.780795 0.9358673
-0.5252471 7.2048016 -0.032333396
0.38891336 6.772416 1.6582606
1.027827 9.995899 0.6731689
-0.6190632 2.8674471 1.0883659
-2.1471803 -4.2618895 0.60400677
-1.1832411 7.6190767 0.14896943
2.4900424 -4.242167 1.2697579
0.12499661 5.823854 -0.281448
-1.5723995 -0.030214678 0.1669577
-1.2600948 7.536215 -2.6878896
-2.3290968 -4.2117047 0.1840041
0.35605112 12.231823 -0.19318531
1.0961145 6.9062667 0.85932326
-0.24707626 4.138568 1.085998
1.4625183 1.6585793 0.06741042
0.20001112 5.061183 0.2923183
-0.2556761 3.571314 1.2484921
-1.4371269 0.7165875 0.5429595
2.0695236 1.504666 0.55889595
1.9649011 9.121715 1.1175407
-1.6132239 7.793437 0.92164785
-0.8055031 10.208766 1.5332997
2.7862067 -4.1958165 0.11856018
0.10082797 9.969156 0.030441819
-1.5571783 1.1377101 -0.21868698
-0.15510748 5.125257 0.76544034
2.848919 -4.560276 -0.88073456
-0.86854804 6.7737503 -3.3021948
-0.4036555 10.222486 0.58931327
-0.71205795 7.6250563 1.7125392
-0.033308033 7.8739786 -3.7625191
1.8905231 1.8128201 0.7876154
-1.1218364 8.947887 0.92379236
-0.6144297 7.7420316 -2.7228916
-0.7376163 8.218345 -2.7192054
0.62894905 2.5738125 1.305019
-1.2372824 8.424445 0.24115859
0.46447372 4.140506 1.2945764
-0.58244455 11.755725 -0.10014196
0.88437754 0.9967251 0.45784876
1.3181967 -0.85019827 1.2323391
0.03224643 12.716598 -0.5678291
-0.26098964 8.142441 -3.5461063
-0.61569184 10.725924 0.9013826
-0.22440167 12.811857 0.5472675
-1.0428239 8.202801 -2.9481156
0.42924088 7.864486 -0.2722671
0.8979593 4.64082 0.35294995
0.7125728 2.0011826 1.2624485
-1.0460078 0.9370881 0.31461695
2.1488402 0.73287755 0.7377982
2.4585764 7.359313 0.5957874
-2.0355818 3.226897 0.16252047
1.005647 2.7484396 -0.1844207
-1.4841449 10.1007 0.6614869
1.6335084 -1.667891 0.8836476
0.42368525 7.676261 0.9921396
-0.87804717 10.90134 1.1860803
-0.30731878 3.1984537 1.0071216
-1.2948575 -0.38420358 0.6689225
1.3367108 6.645633 0.6145827
0.5411724 7.251451 -3.85578
1.6038644 9.64182 0.90085435
0.23837113 13.426306 -0.27532443
1.3219641 5.2048864 1.1391208
-1.3750861 10.446261 0.9020541
-2.5366955 8.042494 0.7278789
-1.7934017 4.905611 0.6951964
-0.9600046 6.9219904 1.2589117
1.0301332 7.2290587 -2.5221891
-0.09536825 2.9651103 0.07987565
-0.18548337 4.6990643 0.7065866
1.0932857 8.416282 0.5392394
-0.13900019 7.034776 -3.497186
-1.754469 -1.8366348 1.0545684
-0.5739429 12.894883 0.28882444
-1.08401 1.4610846 1.063447
-0.44346443 7.03076 -2.963175
-0.83969307 4.994588 1.3518265
1.205428 0.39473972 1.2534628
1.8848723 10.112235 0.3149516
2.466026 -3.9246666 0.9692653
1.3725383 3.68085 0.25889075
-0.9154107 5.88971 0.04907017
1.263181 1.4108429 0.41886428
1.2499704 -0.32994127 0.53963125
-0.3328362 5.8065395 1.0895296
1.4516884 5.9353876 0.64578265
1.873934 8.919613 0.3132181
-1.5331422 -0.112615936 1.4284239
0.62941784 2.0993774 0.55259675
0.34267926 4.790146 -0.6891136
-0.66701984 6.651864 0.62305355
-1.8368032 0.57696414 1.4678898
1.658115 -1.2593964 0.7618746
0.6897047 7.3253183 1.1987592
-0.8503814 7.841112 0.107357815
2.9383166 -4.582555 0.28157523
-1.1714259 9.892378 0.47317395
-1.8410776 2.2111075 0.29326963
-0.20725915 10.5184555 1.3521477
0.5369922 1.9466946 -0.18450043
-1.3921787 5.4262776 0.74538606
-0.3315872 7.0779166 0.33358207
0.42229903 1.4500782 0.36025742
0.57520515 10.561458 0.86693054
-1.3233936 1.7536196 0.9124263
0.8812464 2.0719728 -0.38928762
-0.850653 6.575485 -0.020729125
2.730064 -4.3692546 -0.3403077
0.08425288 3.9291086 1.4317447
-0.37998328 6.9382358 0.7054406
0.048075203 12.174467 -0.026185611
0.541612 1.5452939 -0.010608841
-0.48202235 6.3781056 -0.22307788
-1.6476578 1.3725641 0.16741163
0.5798524 12.896186 0.22906777
0.3598455 4.9712005 1.3383336
1.1041996 0.9610189 -0.26548702
0.6509153 10.342705 0.2793042
-0.21399915 13.6650095 0.69378924
-1.6222593 2.304282 1.1475443
-1.4727502 2.0845952 0.4066162
0.7260251 9.369463 0.32711017
-1.1933709 6.192478 0.99909484
-0.1050899 7.315607 -3.1034982
-2.4160461 7.364043 -1.0989646
0.34534502 5.466543 1.2574602
-1.2413127 0.66599333 0.15569192
-0.47445583 7.2839994 -4.158761
-0.5180704 6.781972 0.23164235
0.8914643 4.2180433 -0.56185424
-0.18337429 7.7328672 1.1885434
1.1014588 8.691775 -0.02584183
0.80852747 6.2485647 -0.24106516
0.9639973 4.4793396 1.49869
-1.3334448 4.247875 0.69260365
0.76942694 3.1175861 0.46045795
0.018604785 5.816442 0.51559985
0.04550776 4.2249045 -0.3114693
0.30201125 6.2763762 0.82415205
0.5536463 3.0121067 1.2920419
-1.2133698 3.3441384 1.4476203
-1.3526396 3.618661 -0.056439836
1.189992 7.8248234 0.9112883
-0.028457029 3.6541538 0.423811
-0.048391446 8.33566 -2.5685244
0.21604499 7.654472 1.7125096
0.28163475 5.5434594 -0.037710115
0.6255771 7.7296634 1.2946963
0.23798524 13.562069 0.12700206
0.5551226 6.832467 -3.2538538
1.8344185 0.054220963 1.4159548
-0.5069138 6.175973 1.8235915
-1.2314887 5.579591 1.055243
-1.6781409 1.5376034 -0.23735142
-1.1828661 9.516697 0.36247203
1.6480126 8.676162 1.0789151
-2.6199205 7.661725 0.60004205
-0.8633942 11.044874 0.7481739
0.62540036 4.6112523 1.3174149
-2.1460383 0.8312469 0.90427005
-0.5232472 5.7038145 0.022043109
-1.3350576 5.8725257 0.7724368
2.227703 -1.193117 1.225206
-0.5799404 2.1408777 0.7863012
-0.22680219 6.85495 1.1206543
-0.80971396 5.225709 0.13509515
0.1196631 8.174986 -3.5160167
-0.7879682 7.4203205 0.3010946
-1.2184545 2.756656 1.2878462
-0.91234404 7.4828715 -2.5091305
-0.78918207 9.583786 0.96064144
-0.03222743 10.30222 1.0224528
-1.8284428 4.5721593 0.8688686
-0.44552952 6.9881268 -0.48174816
-0.006986968 10.420342 0.58120394
-0.17875211 6.883814 -3.1640582
-1.5601683 3.5369513 -0.3712344
-1.6389954 1.9270496 1.1510066
-2.350382 -0.6986874 0.83448935
-0.99985045 1.0564598 1.0872911
0.1394675 9.341666 0.91066754
-0.41869783 10.929035 0.19047475
0.61550426 7.680815 0.031990215
0.07453727 13.204833 -0.026937945
-2.1266465 3.1171913 0.53408444
0.08087197 8.290338 -3.9008245
-1.5828378 7.6926455 0.19120666
-1.4328519 5.021987 -0.31412837
-0.36653385 12.397406 0.48473307
1.2643459 3.4226353 0.86809134
-2.0434008 2.539504 -0.015396714
-0.9371829 4.0541334 0.506538
1.1886464 5.6657085 0.4940084
-1.1270066 9.926935 0.863945
-1.1472691 8.221283 1.2352563
0.09885745 3.4345813 -0.45106015
-0.8796352 13.385731 0.57359076
-1.0483764 5.7821627 1.5423146
0.823121 1.6280642 -0.2664851
-0.035433654 9.114964 1.195184
-1.126613 4.7313504 1.1975818
-1.7725317 7.5377564 0.6590692
1.1627561 8.251603 0.9359736
-1.3020835 5.980133 1.3928349
-0.9984063 4.713043 -0.23501879
0.6034799 8.13562 1.3380266
0.20142679 13.162254 0.36154765
-0.45848337 5.040101 -0.019982554
-1.1734186 9.779679 1.2050037
-1.3155049 6.568578 0.4155624
0.7911406 9.734122 0.081052035
1.5133615 3.1147146 -0.34639335
-1.3461972 8.27281 0.8949957
0.34471613 10.620637 0.44014454
0.5459183 1.1080761 0.24067049
-1.5685883 1.286423 1.3647974
2.276834 8.417105 1.023382
-0.08459832 9.567834 -0.084850505
1.0313079 7.1814003 0.540133
-0.06234992 7.505202 1.532824
2.0473309 -0.42556018 0.51024795
2.2629814 -1.3852581 0.8575893
1.3969325 2.89037 -0.02607185
-2.5611825 9.640744 0.7264764
-1.4342362 10.0957575 0.28622457
-0.90841955 7.299158 1.5455805
-0.8205744 3.8535275 1.1994005
-2.2420645 0.46131927 0.34990674
-0.008322536 12.44023 0.67930186
0.0002506532 9.751155 0.35081452
-1.3406396 7.8805943 -2.7629607
-1.5112524 0.4555896 0.9344271
-0.28094214 6.6403394 -0.57878613
-0.58473873 2.5260317 -0.14132626
-1.9104569 0.46713138 1.0870901
0.24434917 7.5191116 -0.044638634
-0.7551161 10.08296 0.852103
-1.8010464 1.074194 1.2204627
-2.4670527 7.5287967 0.24723418
1.0125428 7.039393 1.2724903
-0.45742896 11.763329 0.6980715
0.640348 5.261128 1.6895884
-0.46975943 2.9270003 0.3773027
0.7780081 7.0499506 -3.0449467
-0.34119016 2.6166759 0.13129745
1.9513992 1.4331081 0.22910196
0.34341654 1.8436712 0.18456693
2.3403103 9.089716 0.88882947
-0.13223581 4.9083014 -0.6994687
1.6913303 2.1022165 0.9557185
0.063903384 7.3847046 -2.6928399
-2.5012586 7.6432657 -0.4245027
-1.3873122 7.4884915 0.45305476
-0.7365479 12.052121 -0.34557426
-1.0018597 10.604678 0.93773794
-1.3353082 -0.27247965 1.1696299
1.9871082 7.1577353 -0.5792317
1.538185 0.6591982 1.1242303
-0.5398009 7.3751082 0.6208381
0.90204173 7.1578164 -0.17631054
0.25088218 5.3087153 1.6260207
0.58056587 8.093171 0.06964555
-0.014970185 4.7719617 1.400683
-2.112881 0.8623905 0.15704796
-0.9891333 2.2890127 1.3141172
-1.9612556 -0.6523423 0.941465
-0.92810905 3.5547123 0.89494896
-0.26997182 8.079345 0.84353113
-0.39304513 8.501133 1.1057527
-1.7520282 10.569684 1.1290584
0.18810755 7.4713173 -3.3385508
0.27346206 8.965764 0.9026747
2.010329 -2.858704 0.86974424
0.73364896 3.8273542 1.125297
0.5135897 6.2097106 0.097032346
-1.9920373 3.6407392 0.10803514
-2.708212 7.3531785 -0.45015877
-1.8475516 1.4500253 0.49073547
0.9130921 8.784509 0.6779797
0.8862854 5.596855 1.6001604
1.1081058 0.028220054 1.0753975
-1.1331598 3.24414 0.050399177
-1.4211196 6.6871133 1.2335237
-1.9344015 10.376047 0.4728893
-1.3861957 7.306112 -3.2535155
-0.003529723 9.544202 1.2461041
-0.71372175 12.847341 -0.374256
-1.5356734 0.9909413 0.18987544
-1.0465027 6.581192 1.0991962
0.076717064 5.685416 1.6471397
0.89919865 7.255767 1.6283324
2.1257248 7.230253 -0.18563284
1.3005642 0.06357868 0.5979536
-0.19651696 11.654227 -0.6649185
-0.0518464 3.6623948 -0.16128391
-0.20352659 6.1491594 0.3652523
0.26887906 7.2265325 0.56296396
1.2343857 5.2802777 0.68826556
-2.0405989 8.548257 0.7600986
-0.4921834 13.177475 -0.41953096
-1.4538116 5.6185465 0.37628236
0.8486383 2.9928339 0.07286049
1.4199357 2.715268 1.1007042
-0.5109102 7.63406 -0.024035588
0.48078892 13.22449 -0.014238978
-0.15004648 8.286099 1.601138
-1.5459673 3.4335213 1.2170037
1.2361083 9.771244 0.18756653
1.9151272 -0.7568002 0.3262095
-0.8775068 6.9953437 0.048117805
-0.5830193 11.389686 0.6235241
-1.9619725 9.396263 0.58081067
-2.5949924 8.987083 0.758342
0.22584213 7.2598567 -0.42594215
1.0131826 7.8398743 1.3171805
-0.33340147 7.4473467 0.27516568
-0.6262771 4.791059 1.0735481
0.9917413 5.246652 0.020001844
-1.1174092 2.6786463 0.5267139
-0.93851197 12.716979 0.32860598
-1.1379819 4.292199 -0.4700096
1.1809584 3.093833 0.23918684
0.34587368 1.7937261 0.58877707
0.84248364 7.634143 0.95755005
-2.124104 7.1642294 -1.0842115
2.3695035 -3.9795854 0.28197345
-1.7696732 7.1934266 0.8226415
2.7806585 7.3924904 0.44725597
-0.7769896 1.3348488 0.82319826
-2.4961946 -4.6338673 1.375564
1.4339869 6.30551 0.81742334
-1.626007 -0.45406038 0.92365444
-0.59717435 12.675404 0.61809343
0.85345215 2.8278155 1.1134481
-2.7717602 7.2170362 -0.044083834
-1.4452047 8.751209 0.89786
0.68427306 9.838311 0.4779243
-2.1772563 10.063555 0.3767055
0.06836752 9.387072 1.6002719
-0.7839818 8.36848 1.1979095
-2.423598 -3.8388124 0.91592443
-1.5363559 6.4185815 0.9894656
1.4880965 5.50208 0.85781306
0.014873538 10.868914 0.60669065
-0.9207762 3.5928364 -0.13090295
0.54725045 2.4582114 0.58107686
-1.8926674 -1.2996503 1.5108893
-0.3675962 13.595561 -0.32779932
1.9786018 10.379892 0.5777525
-1.0877242 5.856569 0.40561783
1.0545421 0.71888083 1.1338733
0.17959535 4.8527784 0.65265596
-1.4015446 7.7994432 1.2305726
-2.1430647 7.1649294 -0.7145191
1.3477437 0.88499606 0.06917891
-0.17055935 8.796347 0.48370427
0.2361001 2.467303 1.0048051
-1.0169334 9.043357 1.2806959
0.058269784 3.9732141 0.046294503
-0.7561644 5.346191 -0.54022735
-1.795395 9.760921 1.3352842
-0.12648779 8.141674 1.2333015
-0.82087976 4.3722324 -0.175039
0.19460747 12.790946 0.5033725
2.7141027 7.3840027 0.00075131847
-2.214176 0.06851099 0.114240326
0.8320206 8.064199 1.6452564
0.7186577 2.7358265 0.31902298
0.51401293 5.4743643 0.5657172
-0.5514599 3.2388744 1.2764841
0.37872016 8.352392 -3.62488
-0.6637749 5.802715 1.39133
0.618989 6.5393696 0.72830486
-0.2727582 7.840357 0.26208353
-1.9840425 4.6757345 0.47581893
2.245528 8.028484 0.78268915
1.8465681 8.873743 0.7814472
1.2068304 3.7557914 1.2687905
-0.16810915 12.013993 -0.31329057
-1.8387469 9.857014 0.98176366
-0.18092541 5.5690355 0.8093447
1.08683 1.6716701 0.08424009
-0.33519682 2.9206197 0.7651612
-1.10959 0.5949477 0.93458307
1.4017518 7.0625005 0.6084851
-0.76724076 7.2853537 -3.5299478
0.030380704 7.018149 -2.869453
0.88280004 7.821776 -3.3597982
1.8129917 1.4450039 0.83987015
-0.45610547 3.5473573 0.36909765
-0.7157096 9.147242 -0.17855935
0.5806086 7.0762143 1.5751647
-0.22684467 12.078448 0.70476466
0.082829595 12.467671 0.30651242
0.74010676 5.6654506 1.2779219
-2.1439617 -0.9981698 1.495133
-0.36607063 6.5668325 0.90290993
-0.1480298 8.198718 0.09325704
-0.6100509 7.3601265 -2.8055673
-0.62023264 8.730994 1.7061638
0.19335997 5.9291954 0.144024
-0.76561815 9.142622 0.94492316
-1.1928515 8.021884 0.17633522
-1.6086545 0.7794095 1.213432
-1.8758256 4.6995487 0.097305104
0.17971753 8.638608 0.593908
0.47149155 12.872569 -0.11397447
-0.9364133 6.963523 -3.6821284
-0.8049699 5.5101523 -0.13935493
-1.9662256 1.4116889 1.2601459
-1.7440588 2.9520695 0.3881848
-2.6744623 8.335861 0.54498065
1.1435567 4.850055 1.3580931
0.31992683 10.244622 0.7459825
1.7203509 10.498161 0.84116834
-2.8566704 7.504276 0.31359097
-0.95992434 4.855379 0.8628832
0.9700789 10.079228 0.2565835
-1.9748194 -0.8833078 0.6414221
1.2295314 6.7759004 0.301467
1.0515771 10.798605 0.77773815
0.6738313 8.213673 0.44797775
1.2351784 3.4024053 1.2314264
1.5169907 3.1390543 1.0342337
0.02600016 8.364433 0.9268426
-0.15569612 7.556978 -4.267193
-2.2774515 2.0262308 0.49409634
-2.7876835 -4.5443635 -0.7242269
-0.8116199 9.041991 1.6381699
-2.210121 -2.3151667 1.2979727
0.9081845 10.072954 1.4765987
-2.0830503 3.9161737 0.42622215
-0.18917291 13.033589 1.2512866
0.9553762 0.33862162 0.88339245
-1.9777133 -3.9319646 0.8196125
1.4164484 4.7425985 -0.18326342
-2.561576 7.5027723 -0.75613606
-2.1671197 1.7246683 0.29156473
-1.5261613 3.1993995 0.70504826
0.5523474 4.5449843 1.6994406
-0.8602027 3.4155798 1.3385327
-2.2783222 0.03542676 0.90713364
-0.47810164 8.304644 1.4209056
2.1554751 8.715166 0.59588206
0.92460394 5.0876203 -0.4297091
-1.3313498 6.746484 0.834754
-0.12250057 13.777956 0.32034576
1.1055465 4.2213044 0.8992044
0.01443478 5.6152425 -0.6594724
-1.4376345 2.5084386 0.85962045
1.1058578 4.9668174 0.92411506
1.3800929 10.244142 0.7409304
-0.77546227 5.581932 0.3342455
1.0167032 8.753971 1.4059979
-1.6040941 8.576867 0.18559064
-0.95246744 8.257455 0.8664169
-0.40928224 2.2571712 0.46973956
-1.1911738 5.5954757 0.038449794
0.3949231 2.8992012 0.5395564
-0.5937465 6.4077387 0.27088466
1.5376599 8.990809 0.5134784
0.1936058 3.5531423 1.4609835
0.61315846 9.957455 0.8675446
-0.1235518 7.3149204 0.6283422
0.09114926 7.927905 0.8991618
-2.0294652 -0.57215756 1.5816351
-1.2389681 0.308636 0.33447066
0.046127558 11.473097 0.049665764
-1.0323308 3.6561363 0.57991457
1.2280874 7.294939 -2.231806
0.028205324 7.773381 -2.633778
0.20879099 9.92713 1.0909567
-1.5026988 5.3730206 -0.21360068
1.3860025 9.832893 0.571054
0.46095344 5.927387 1.0018553
0.6380659 5.2754436 1.3307649
-1.123928 10.225889 1.1324217
1.2600968 -0.83944947 0.25578952
-2.1665573 -4.598672 0.9227308
-0.38859913 12.969835 0.90798527
-1.105574 6.789524 -0.2849121
0.112189844 5.213565 -0.67668885
0.62597376 1.0999289 0.70780474
0.10364976 8.432306 -0.1881867
-1.5489463 2.2856328 -0.30589664
1.2627031 4.9008927 0.54484534
0.18492733 6.5677423 0.53329027
0.13624427 9.063005 0.52473205
0.5006954 5.889087 -0.16627388
1.9719143 1.9066024 0.3624093
-1.4053959 7.187729 -2.887958
1.7483647 1.0840348 1.1005294
1.042374 7.7164326 -2.3182206
0.13539931 4.1799765 1.1126128
0.41354278 9.171143 0.20843372
0.8772006 -0.7508049 0.59026253
0.51994413 13.315231 0.356053
2.1513743 -3.6403594 1.1579407
-0.6425957 2.461485 1.1090796
0.47623298 7.0148773 1.2072395
1.9381872 7.1353536 -0.9620237
-0.437083 2.4984121 0.83211035
-1.0372145 2.8938274 0.9018876
0.9267738 4.8410625 -0.08549625
-0.8531215 8.091871 1.5694853
1.02093 9.59508 0.44593927
-0.14242361 7.8897004 1.5864011
0.42799634 6.859152 -2.8148952
0.42103648 12.6794 0.8625641
-0.052623887 8.586471 0.1531901
1.0578902 3.7829964 0.5274968
1.1648276 5.7080674 -0.0020749622
-1.8524299 0.6163654 0.6166046
-1.0559181 7.301364 0.57750463
0.49614066 4.4106607 -0.56053627
-0.4900158 10.056005 1.1648608
-1.806805 2.414783 0.601599
0.91636956 2.2893066 1.2769946
1.1372494 0.19587015 0.020412058
2.0236127 7.498454 -0.84898126
-2.2880409 0.10229097 0.5182115
-2.1587956 2.7086122 0.6170228
1.182007 1.4512144 0.8275465
-1.130404 4.064487 1.5740421
0.6643546 3.6069546 0.07545637
-0.52525747 3.9608414 -0.5878564
-0.04707734 13.658501 -0.10555152
-0.7934559 3.2113469 -0.06394859
1.6181233 -0.87362677 1.4458516
-2.7885537 7.5580025 -0.12485647
-2.0689092 -1.6900862 1.4247166
-1.6002378 6.1885047 -0.0822983
-0.04055429 3.8430085 -0.5239893
1.4173204 8.56926 0.24872158
-1.3056886 4.7274613 0.5557971
2.0329485 -1.1329157 0.63682336
1.0844029 6.651017 1.3115706
-1.6611978 4.078731 0.45006987
-1.5052502 8.908711 1.3017248
1.6556689 9.764414 0.2683211
-0.5421259 8.047316 1.099807
0.336199 9.212144 1.2978985
-0.5596075 8.399309 -3.6976964
0.55497116 3.4244454 1.4617673
-1.1506586 9.7959795 0.08419976
2.2571301 -1.8048172 0.7774924
0.40542498 2.5159073 0.22766584
-0.296975 7.5800776 -2.5490682
-0.11106522 4.8260584 0.019560674
-1.1678921 10.119605 1.5151186
0.0448107 7.605339 0.30087695
0.5356104 12.549234 0.46812007
0.52811044 7.2160444 0.019237127
1.7091533 3.9880228 0.7726646
-0.60494316 8.090968 -3.4475436
1.259497 2.2698827 0.30283353
-0.85442215 13.155754 0.94690585
-1.4831773 10.036211 1.038406
-0.27156126 7.2179146 -2.6873221
-1.3551874 2.4387858 1.3378767
-1.0718104 3.2258666 0.6331489
-0.26108405 11.434852 0.80776376
1.2017573 6.234261 1.137827
-0.2955262 13.327697 -0.051800657
1.0525326 9.427423 0.031241361
0.8540332 1.6772159 1.1301162
0.9045571 5.0706167 0.35562176
-1.3448489 2.0296357 1.35827
-0.56477934 3.5440955 1.0092272
0.926877 4.6053715 1.055728
0.74521345 1.7066793 0.7535674
-1.8894987 3.3285904 0.7322771
0.8509865 5.3027935 0.6671747
0.9106405 10.706888 1.1619302
-2.4883187 7.087301 -0.3218327
-2.2374659 2.3335052 0.74735117
-0.8702 4.4725666 0.9819708
-1.0399585 7.745654 0.50655746
1.0824872 6.824202 -0.072954565
-1.6220632 4.6586533 -0.22979906
0.6373394 9.374862 -0.07035701
1.3777168 7.569004 1.1686469
1.5984348 0.7663308 0.372499
-0.52056134 5.4644923 1.8117927
-1.9513788 -0.47257137 0.5570673
0.05975495 4.5981803 0.3558262
0.8960799 8.515843 0.23151982
0.32715574 8.774901 0.23160732
0.12420762 7.03296 1.3531369
-0.14134859 6.014796 0.0074089286
-0.34130225 9.526236 0.23753941
1.482019 7.457332 0.78522867
0.4784662 2.7630227 0.92496747
0.27132487 5.132809 -0.091352426
-0.38110694 8.85953 0.118136525
-1.5061456 2.8674715 0.032701407
1.0281554 6.4933133 0.89795816
-1.0372119 5.6545477 0.69428843
-1.2392756 5.9982734 -0.21946351
0.20980127 7.2145486 1.7066773
0.37442386 9.072945 1.6714523
1.3331892 8.019191 1.2583823
0.7099197 9.586346 0.8032535
-0.2256728 12.41622 -0.4047456
1.4956659 0.28201348 -0.20201153
-1.0363355 8.494863 -0.21142048
0.3978312 9.629105 0.31738782
-0.38049012 8.126303 -3.0917766
-1.6819658 9.772947 0.6299455
-0.44405758 9.859956 0.8281907
-0.7032111 7.8605175 -0.28515127
0.9738664 9.073502 -0.05990732
-0.22458264 12.696501 0.16703366
-0.23241179 4.8930936 1.0766681
-0.1539886 7.267461 1.2485591
-0.396127 4.6108794 -0.67706585
-1.93601 -4.62249 1.3374255
-1.5461584 9.732619 0.2082134
0.10789179 13.242808 1.0884684
-0.7275386 2.8477838 0.069747075
-1.243215 4.3855004 -0.10109557
-1.1574353 10.722005 0.5829631
-0.52413625 6.9811325 -3.402155
-1.7493093 3.8499322 -0.21481307
-1.7208966 9.073584 0.72002447
1.3729903 9.903559 0.9828948
-0.75763935 7.0464764 0.4235324
-1.5299312 2.6588511 0.49732536
0.5346771 3.245065 0.18432726
0.1068862 2.807856 0.812146
0.7188677 6.1853476 0.841342
-0.93084306 4.1402736 0.12739958
-0.9628785 8.933565 0.55806446
-0.8568057 13.166995 -0.09070891
-1.4387653 1.1616611 0.55248255
-1.1288631 5.183994 -0.0782459
1.6075798 4.609026 0.15980911
-1.7729137 0.43751714 -0.1756301
0.0732052 7.7140985 -2.2581344
1.3215309 6.286661 0.37070373
-0.4223224 4.919941 1.4348905
0.4338048 1.4379983 0.717003
0.055203676 3.4141872 1.107866
-1.0490541 7.68158 -0.25374612
0.36661997 10.281747 1.1375394
0.033835985 6.792522 -3.831246
0.2159085 5.5132413 0.32031053
0.6921409 10.936976 0.87069833
1.1136234 2.4747794 -0.46930638
1.9323926 -0.18936837 0.27633673
-1.0039034 1.0067682 0.6927349
-1.5941263 3.0447803 -0.34380955
1.6193373 -0.81834 0.07756522
-2.5815573 8.533241 0.2197206
-0.81368214 12.429556 -0.13019344
-0.94327354 7.9361315 1.1782349
0.50698596 7.875625 1.6279023
-1.1471709 2.9593875 -0.306318
-0.57433504 1.8817972 0.50015974
-2.598884 7.819572 0.06689591
-2.1795347 0.44283408 0.76904076
0.43340158 6.8892403 -3.6600466
0.15631829 12.063954 0.710242
0.8023442 9.339712 1.6226598
1.9940836 7.426549 -1.207524
-0.4625833 7.619813 0.95230323
0.503365 5.6707497 1.6287383
-0.8299692 13.494348 0.19703206
0.060637068 7.2068715 0.22746824
-0.9610467 3.034563 1.3675524
0.13982615 2.6161375 -0.14515074
1.7224808 1.3897524 -0.088690184
-0.43455213 5.3946395 -0.22448207
-1.4126151 7.8827195 -0.14838484
-1.6973163 -1.5929825 1.3609548
-0.9124359 7.3364444 -3.93461
2.1590586 9.290609 0.22015803
-0.30270457 5.873672 -0.6386738
0.12634133 7.6536584 -3.011857
0.6711458 3.9015443 0.4243614
1.233209 5.285737 0.31121492
2.1102169 9.820915 0.95222116
1.9598358 -1.6828699 1.028034
0.026157338 6.8049946 1.6628752
0.5164948 8.729942 1.5926152
1.4470135 2.6633792 -0.38791412
2.2656636 -2.4376647 1.1343554
-1.762078 1.789078 0.2478404
-1.1260016 7.872029 -3.1768847
-1.2767003 7.226779 1.4571059
-1.488157 0.43637034 1.4333296
-0.16568835 12.306252 1.116234
-0.35346225 7.1887584 -3.7397246
2.0721834 9.697179 0.2868002
-1.155218 7.1475725 1.0278101
-0.055528305 12.073541 0.3687522
-1.5005463 0.33297917 0.055135146
-0.16023663 7.511779 -3.5217354
2.5719898 7.4006615 -0.42351583
1.175238 1.7732224 -0.35248357
-2.2401676 8.238877 0.52309877
-1.40289 8.80831 0.48554364
0.16184507 2.4764628 0.6017313
0.58386165 6.045177 1.3344338
-0.97390234 3.7172983 1.5521785
0.23711622 8.328415 1.3235238
-1.040724 1.9352039 0.6777013
1.9611486 0.649091 0.40100557
0.9076552 6.8572764 1.6270266
2.4831731 8.701542 0.85473806
-1.3488122 9.232357 1.4132768
0.7467559 10.66975 0.5410061
-1.4024491 7.1269364 0.75819653
-0.7869894 8.686157 0.88464975
-1.7229438 3.3488941 0.37182724
-1.2338457 6.973365 0.43185675
2.6458218 -3.9565828 0.5999383
0.24273704 6.811072 -0.4906965
2.2279627 -0.9867955 0.9247326
-2.6221354 -4.133852 0.6320253
-0.30757475 8.5343895 0.7337417
-0.786251 3.183742 0.9624394
-2.103832 -3.4260466 1.2329383
-1.8253915 8.814178 1.037594
-0.8491818 2.6675873 1.3574916
1.9193143 -2.5538235 1.1621596
0.2551405 3.6116018 0.078079164
0.75325596 2.5370016 -0.45749786
1.5628557 1.4183376 1.1384871
0.40688276 9.365182 0.6016668
-0.32516026 4.5201406 0.35449752
-1.7025203 4.8941884 1.1018202
-1.3110456 1.1317655 1.2358477
2.7207227 -4.604948 -0.057474904
-0.22843376 3.2356062 0.45029157
0.27232203 3.890737 -0.28704098
0.6949708 7.9226756 -3.6897633
-1.9648671 -0.10586655 1.5371644
0.2587221 8.322812 0.24951692
-1.1545541 5.002632 0.27747163
0.35395008 12.349322 0.71582997
-2.6675677 8.771621 0.48741466
0.8572388 1.3529681 0.56309843
1.3469205 0.7935919 0.84463185
0.6823093 10.453914 1.4127764
2.0312374 -0.11007309 0.7264953
-0.2789942 7.538333 -2.1894195
-0.51280093 4.130131 0.4350699
1.9202099 2.3212938 0.34734005
-1.8457208 10.193112 1.2623798
0.24919309 6.1787524 0.44947204
0.72375035 5.482564 -0.45522872
0.8401264 4.845081 0.6913217
-0.80846006 12.737362 0.9883115
0.76437634 6.777608 1.0232168
-0.42198446 9.062687 1.632106
-0.30519652 6.7906294 -2.5898347
-1.007839 4.444503 0.6374417
1.4196054 -1.303553 1.0679443
0.01637784 6.5830874 0.9378531
1.2587273 3.7867677 -0.08248765
-1.3163128 9.6095705 0.7430324
-1.1377096 7.0695763 -3.407177
-0.59577185 12.512427 0.18399152
-1.8410279 0.81615984 -0.16502297
-0.6921622 8.776912 1.289384
0.15055092 3.5984068 0.76357126
0.41178137 8.120429 1.022359
-0.06887508 8.274352 -3.2106764
-0.2612853 7.333814 -0.4717236
0.40882248 3.5549576 0.41664314
-0.86729354 7.4226127 -0.04381242
1.7480024 9.93673 1.1874175
0.43723208 7.477872 0.31783795
-0.4563632 12.178041 -0.16016786
-1.421756 2.8806734 0.8417282
-0.6303177 6.9587665 -2.5456336
0.77759874 7.102477 -3.5050867
0.76312023 4.7188826 -0.5992407
1.7063605 -0.6176354 1.1286405
-1.052603 3.7230809 0.18680882
-1.1341447 5.4979134 -0.34633625
-1.054694 7.373221 -2.9495373
-0.2764503 3.896523 0.6524428
-0.4253312 13.719434 0.07638147
0.5285921 8.964145 0.588218
-1.9398136 -0.09805007 0.42018974
0.8990953 5.9266334 1.058166
-0.5214976 6.606273 -3.2626433
0.8009661 -0.33305573 0.52088106
1.3995352 8.995207 0.12832086
-1.3192582 3.8961158 0.36422887
-0.012194554 12.810775 0.88175994
0.17512909 7.021567 -3.2997265
-0.9591322 13.121252 0.28267002
0.35882792 12.176964 0.2895687
-1.2630664 -0.032184165 0.8590276
0.65090126 5.193587 -0.1747278
-2.1022222 -3.8290977 1.2465957
0.82310945 4.009324 0.7614729
1.0225825 5.2223287 1.4579487
1.3139211 10.013051 1.3783734
-1.3544015 2.4646065 0.07906563
-2.0062964 1.5912313 -0.025918117
1.9334397 -1.4460987 1.4050823
0.6906153 0.36254516 0.5296259
0.20390894 11.974962 -0.45799437
2.3672729 -3.695186 0.5640084
1.4383643 -0.120155245 -0.11377969
-0.36861482 8.069712 -0.31375942
1.6782901 -0.14372951 0.60012776
-1.1697608 2.2158725 -0.27982825
0.15468234 6.234965 1.241695
-1.5341041 5.745403 -0.16005835
-0.9277538 9.480775 -0.060561925
-0.7125744 1.8401948 0.14148368
-0.118520126 8.503331 -3.650804
0.7566503 1.2167261 -0.1395745
1.5486331 5.047397 0.13166884
-1.157158 2.0745826 0.13528192
0.13735217 4.5557723 1.7613844
1.3344431 7.56548 -2.1702344
1.7427517 7.4895697 -1.549058
1.7606556 7.2030015 -1.2894388
0.23852909 4.123576 -0.65190697
1.0940487 5.4661007 -0.28042793
-0.7393683 10.817611 0.47029713
1.1218177 3.147764 -0.19502467
-0.70886225 6.5849285 -0.4336632
-0.17847079 7.524674 -3.918388
-0.5301801 2.2245173 0.09594802
-1.3249633 6.187011 0.5430524
1.698395 0.6894688 -0.059088647
1.1215066 1.9337164 1.2972873
-0.5756294 8.352298 1.7624534
-1.1102868 5.164524 1.5722703
-1.0560344 2.545509 0.9861714
-1.5799417 7.313517 0.066924796
-1.7409847 5.055046 -0.047977228
0.5831936 2.173253 0.15220745
-1.6857716 8.458583 0.9690388
1.1720073 3.0326967 1.1099384
2.0732813 -3.6778595 0.7988967
-0.51995105 9.533829 -0.106564924
0.38627526 9.58699 1.1212374
1.9108988 0.36537552 1.201802
2.1231217 8.773117 1.0710847
-1.664513 6.5480175 0.20503056
-0.22642963 11.632137 0.37874666
-0.23975913 6.6327314 -3.5835228
-2.760556 7.950234 0.41366097
-0.77176845 1.7283328 0.87349486
-0.13347077 6.6488867 -0.25109705
-0.88465893 4.8062973 0.483565
-0.08513539 13.383477 -0.41599977
-1.610618 -0.087631814 0.679493
0.24360888 6.669792 -3.1009915
-0.9076102 9.494236 1.3268349
-0.8443364 2.1430674 0.38461939
-1.1523467 1.0710726 -0.02643053
-0.4308913 7.3444138 -3.2851682
-1.3569216 0.91204613 0.88973325
2.5192404 8.113668 0.39677027
1.5908756 -0.5545791 0.40984285
0.7691502 6.020075 1.651723
-0.267391 11.521434 -0.22976844
-0.5116529 5.961815 -0.2751754
-1.8594048 7.9101353 0.5495858
-0.82149583 4.814658 0.06352874
-1.528502 6.040792 1.118725
1.3841871 7.1349216 1.0711823
-2.2725952 1.5050464 0.99797416
-0.3198312 6.8575735 -3.9537864
-0.53772175 13.28571 0.25715828
0.6724401 7.2251716 -2.703678
1.0411681 -0.5418256 0.3114995
1.1972222 5.5551605 1.2730547
0.7688495 3.2767527 -0.214744
-1.5154028 8.365171 0.5555201
-2.469454 8.162922 0.15626846
0.16013105 3.2524953 0.35369605
-1.5033911 9.177624 1.0149218
1.2262151 9.145512 0.72692144
0.50256795 6.5086966 -0.43005297
1.1209491 10.394328 1.3280401
-1.2784886 -0.06557171 0.4398118
-2.339961 -4.585684 0.44423217
-1.0356065 6.5415154 1.5073267
1.2929361 2.4360378 -0.08914794
-0.5767337 4.722526 -0.3276104
1.3743753 0.66081893 -0.2849488
0.29334676 11.00364 0.9629094
1.4414544 1.5112135 -0.3088439
1.4385035 -0.94775426 0.9013737
2.2435548 -4.338505 0.45555726
1.7625245 0.015375799 0.0056737037
0.61442286 4.546429 0.03815197
0.21697249 7.7508926 -4.1409864
-0.5425178 8.073678 0.07104421
0.19772145 8.092222 1.6929102
-0.49755803 3.8790755 1.0012695
-0.9569332 2.45024 0.16432916
1.7161899 0.88964146 0.7158016
0.5438179 7.4517446 1.598658
1.6696116 4.815493 0.44877028
1.3200239 2.229384 1.1235753
-0.13462412 7.4016466 -0.10262969
-0.69932264 7.5810957 -3.129387
-2.7176855 -4.224571 0.2778904
1.6732165 2.863527 0.7995845
-1.9412813 -4.2293973 1.4215823
0.22332093 7.382995 -4.1361794
-1.2834263 -0.6600304 0.9328119
-0.8252909 3.3897128 0.29339194
-1.597766 -0.37760592 0.35946235
0.6486289 6.706983 1.3679899
-1.9122868 5.0857854 0.3267917
-0.3387251 7.992492 -2.7120605
0.8694658 2.3755717 0.21266188
-1.2593576 4.328929 1.0580531
-0.25469536 5.041852 -0.34347376
-0.74451846 12.062636 0.07016679
1.5210534 3.2839828 0.34435064
-1.3926507 7.490487 -0.18644574
-0.8539566 1.2311336 0.3627441
-1.1261787 5.396962 0.38350907
-0.99633706 6.8505907 0.76218116
2.6384518 7.668648 0.28814784
-0.3168731 5.35772 -0.6377088
-0.04502062 9.468661 0.56526136
-0.30717802 7.106928 -2.3173506
-0.42418814 12.783133 -0.58242655
-1.4001243 1.7190629 0.10463526
-1.1222434 2.8492756 0.089022964
-0.6146803 5.6877985 -0.5619179
-1.6142515 7.616556 -2.4725418
1.9796492 -2.2177088 1.2775071
-1.6307819 4.4708967 1.2060243
-2.0882223 2.0590625 0.0981057
-0.6682316 12.450385 -0.49776447
-0.6969668 5.8563137 1.7575558
-0.7620614 9.571241 0.30713573
-0.65563387 5.7361846 0.71920806
-0.059853688 6.782099 0.18554232
-1.1385922 9.365572 1.0527661
-1.7360208 2.6511147 -0.26628464
1.9294114 -1.9587098 0.75252056
1.7217124 -2.019365 1.0626404
-0.91319 7.9044843 -2.568853
0.8310803 3.9549541 -0.23229809
-0.9504164 6.2593403 0.33471918
0.55825436 6.961834 -0.31716794
-0.73398244 9.855812 0.027088301
-0.6070384 9.834514 1.5642644
0.49268836 3.953929 0.06534155
-0.83184725 6.202531 -0.09484401
0.92885935 5.31346 1.0579336
0.7037302 10.2469635 0.61813235
0.7554412 6.867727 0.12520324
0.7898912 0.0367648 0.3720025
0.3817709 8.041587 -3.9183424
1.0051056 3.5754073 -0.24300775
-1.046593 8.098339 -0.21361014
0.47809386 2.343407 -0.2755133
-0.6504588 11.211967 0.33536935
-1.5839353 5.317783 1.134801
-0.68664175 8.314583 -0.25400516
0.32647946 9.620987 -0.04808686
-2.3103209 -0.29683992 0.23539844
-0.112969875 4.382041 0.010023478
0.4459428 8.381406 -3.1679556
1.4001465 -0.13059606 0.89469904
1.7913736 0.3865109 0.14756149
-0.07413392 3.805256 1.0551997
2.0182939 1.0578275 0.8791023
2.0833864 1.0844169 0.49525446
1.4173361 10.131868 0.3084086
-0.36100537 5.723908 0.3989032
-0.5708495 8.758323 -0.25212425
-0.66318077 3.7389593 0.6285945
-0.5460067 3.2493246 -0.42467487
-1.3590604 6.34443 1.3875172
2.3760223 7.803009 0.15690643
-0.9113416 12.519283 0.63826346
-0.64610827 13.496943 0.85093963
-0.23125814 4.2097425 -0.61206824
0.40392792 2.7353358 -0.4075702
1.109416 2.4328542 0.90696186
1.2927227 5.108976 -0.20701794
3.0778592 -4.570022 -0.13496023
-0.5783742 3.6634426 1.440947
-1.1857738 3.6233363 1.1391534
1.1517333 4.138614 1.3141311
-0.8497274 9.740285 0.62465
0.32655266 6.883228 0.23124206
0.5813991 8.583511 0.523009
-1.3645432 3.7514327 1.4646857
-0.8080487 2.0908034 1.0580153
0.3807623 7.2748985 0.91684735
0.93837374 9.294015 1.0401878
0.6243684 5.5683637 0.9321179
-0.9910904 2.590002 -0.2249523
-0.67482555 9.4439535 1.6450062
1.4134539 4.774953 1.0591685
0.12169883 6.4379306 -0.5686856
1.5706699 9.264865 1.2460773
0.88364756 3.5821302 1.3896211
-0.6263234 7.3143253 -2.3583486
-2.1985142 -0.67987895 0.15128243
-2.2640479 -1.3819275 1.2769384
-0.32708743 6.5005307 1.7221417
0.81723624 6.6534615 -0.23754181
1.764499 3.0814338 0.032411534
-1.9432435 3.8575675 0.79035753
1.0037909 8.278843 1.3414632
-1.4570593 10.385008 1.3410885
-2.0582743 -2.9718344 1.266823
2.2594173 -1.6302632 1.2022812
-2.9753442 -4.578545 -0.37869516
0.66511244 4.2023106 1.6073468
-1.871856 2.901728 0.80554855
1.941459 2.2291484 0.7158981
-0.12591662 9.642248 0.87867814
0.48189983 6.435523 1.1151259
0.81524694 8.481451 1.6419991
-1.9682627 4.3536935 0.27797556
-1.1090062 8.638715 1.1682299
0.59268993 3.9637394 -0.60633814
1.4841005 4.3732905 -0.117569044
-0.92143935 6.071375 0.7326699
0.5619543 9.020591 -0.15264903
-0.46104658 3.1995156 0.098605216
1.7339854 0.52737397 0.7837138
1.3445971 1.8565245 0.37824345
-0.027576152 8.000145 -4.142221
-0.6001599 4.575953 0.6476354
0.3109686 10.042422 0.44532526
1.6448126 4.160991 0.13018556
0.97285044 7.522142 -0.1319376
1.1199851 1.3416541 -0.33332857
0.19690089 11.78806 0.33503106
0.1978942 8.43714 -2.873264
-1.7572085 10.287173 0.8675592
0.51308495 10.006056 0.10389763
2.1832633 9.436345 0.966046
2.0449095 0.020926524 1.0997604
1.2319994 1.3280251 -0.013424336
2.5287085 8.622157 0.47551286
-1.7494754 8.131023 0.8108502
-0.18198207 11.245539 0.3959853
-0.20926191 9.792122 1.5140659
-1.2627785 8.005997 1.5402575
-0.14110257 5.957313 1.3617873
-2.358675 9.596946 0.39454553
1.0922248 2.8284304 0.48345086
1.2955511 4.095671 0.21068586
0.94573396 1.3263681 1.0635828
0.50699055 7.7529583 -3.159345
0.18489778 4.8263664 1.0299875
-0.20582247 3.2827394 -0.26871595
0.6235109 8.144615 -3.4054282
-0.14358737 3.434222 0.120530985
-0.11852693 13.426669 0.32392648
-1.2854567 4.6528497 -0.47156173
1.9453074 -1.0493114 1.4380461
-0.83583164 9.9188175 1.2274371
0.17527534 8.094526 -2.4341462
-2.0145717 -4.2388606 1.0369594
-0.71488506 6.487374 1.7362994
-1.8603898 -0.83506423 1.2509518
1.3940511 3.575022 -0.39727297
-1.6238706 -1.3937243 1.02982
2.2201595 -2.5794353 0.79655564
-2.3727975 9.187665 1.1780537
0.8462532 1.9262105 0.015545025
0.048164565 7.0651784 0.9419738
1.5504502 5.0551996 0.8210721
-2.5314617 9.248966 0.45120358
-0.48210362 4.202991 0.07199495
2.603112 -4.279018 0.8750307
0.99580085 4.2315955 0.457521
0.012457752 7.495497 0.96150917
-1.7322745 3.1456108 1.0987362
1.876009 2.6181135 0.5900015
1.4531275 4.0086284 1.0767606
0.7994472 4.244149 1.1381079
-0.024781458 4.5098896 1.0532141
-0.214518 7.982864 -2.2997503
1.168109 7.6005774 -2.6319747
0.7382012 4.4299583 0.71326846
-2.3303907 -0.37701097 0.99436504
-2.2283118 0.7951482 0.51869273
-0.11400251 5.3909254 0.44916195
-0.49436986 6.8339853 1.8081424
2.267612 7.7356887 0.52886736
2.557077 -4.593247 -0.6145042
-0.7577455 5.084487 -0.25539446
-0.4724028 9.491112 0.6611608
-1.8218254 -0.7199418 0.25670052
-0.2507207 4.611264 1.767465
-2.753687 8.583518 0.87049305
1.3770826 0.50067794 0.15751043
-2.6300023 -4.6070395 0.10466956
-2.5361025 -4.224092 1.0194216
0.0996762 7.210231 -3.7098944
-1.640934 3.6929204 0.19246112
-1.0014621 7.7136936 1.5282973
-0.6693552 12.373408 0.92557085
-1.4719864 4.0453777 0.030947981
1.5265499 1.2250493 0.19555351
0.35505635 7.1019573 -2.5249026
-2.6405191 9.30369 0.91494995
0.02101961 3.2065485 0.72374886
-2.4138656 7.1599607 0.062405318
-0.008462406 13.166303 0.7000884
-0.49579105 10.528037 0.25847003
1.8302491 1.7847571 0.013463372
1.1865302 6.103481 -0.03480795
-1.323915 4.817639 -0.026685817
-1.5547812 7.425424 1.137454
-1.5766771 9.416693 0.5073543
0.55779904 5.320328 0.20242473
-0.7635976 8.405799 -3.325694
0.6494431 8.52209 1.2498548
0.7006912 3.3923576 -0.5966743
-0.8702199 8.52478 0.47199187
0.37144628 13.052921 0.9254634
1.3009892 7.442242 0.34219387
-0.3156972 5.305948 1.096713
0.2671116 7.4232664 1.3022431
-0.18423091 4.9826417 0.3962078
-1.4127159 5.071437 1.3703358
-0.98732406 5.8394322 1.0978415
0.8670159 0.70524085 0.73670125
1.9394689 8.41415 0.86624485
0.2594337 4.535208 -0.2747013
0.8661708 3.24308 1.2273971
1.5767938 2.0583503 0.14554824
-1.1306105 5.1700974 1.1109097
0.17492893 12.314961 -0.55499303
0.031018358 7.990277 0.47844183
1.8530332 3.0475004 0.4601991
-1.2268555 2.159384 0.96635544
0.40560326 3.160734 -0.5514476
-0.022407245 5.5645514 1.229281
-0.19110954 11.823786 0.033385206
2.3174028 7.3057766 -0.84899175
1.0933996 5.919348 1.4050678
0.2531496 2.755122 1.2639047
-0.57125473 8.818817 0.5118911
-0.39568 10.204352 1.469478
-1.3158388 9.181772 0.6913537
-0.814343 7.743819 -3.4999044
-0.05092546 8.597028 1.2945514
-1.3345785 10.74461 1.2041104
-1.138266 5.109693 0.670054
1.0930896 8.950984 1.0525191
-0.7270889 10.44902 0.6583403
-0.53041697 4.8896923 0.33845615
1.1402694 2.651312 0.18931556
-1.6719064 4.170317 0.9071273
-0.17642243 6.465405 1.335665
-0.60546476 8.45347 -2.9936805
-1.5641702 -0.70967466 0.59020543
1.5395921 5.5900283 0.4209227
0.44990548 7.809492 -2.437894
1.5183672 0.24679327 1.3079157
1.0811454 2.603122 1.2459202
0.1719429 8.600739 1.6775348
2.2094133 8.1336 0.22472559
-1.7822073 4.2963767 -0.10208656
-1.4453996 4.725624 1.3900679
-1.6871876 5.6669364 0.8721605
0.5585902 7.5714197 -3.5023165
1.7955663 3.623286 0.6397995
0.80883306 2.7560852 0.72154295
-0.87230146 8.342825 0.106026836
0.10931546 8.559086 -3.3090212
0.6496858 3.1165164 0.88584554
0.41497567 3.276621 0.6887811
-2.0898209 2.8128197 0.25379166
-1.751236 8.698933 0.6040108
-0.075168274 6.2677994 0.7094667
1.4821824 1.2318642 0.76029867
2.3165796 9.523697 0.612384
-2.0374694 8.762618 0.32929954
2.144531 -0.74282473 0.6809352
-0.4958538 12.998212 -0.053446658
0.3285217 12.62092 -0.3519104
-0.4276615 4.497363 0.9843717
1.1616393 9.222883 1.430975
-0.8949506 6.2138724 1.2776732
0.18984269 7.043494 -0.11876323
-2.058331 7.4945416 -1.6533523
-0.444529 12.088686 0.96960884
-0.23383163 7.1524925 1.6430829
1.1411283 7.1488914 0.16286704
-0.39296857 7.2264442 0.9789666
1.9281467 -1.8508697 1.3516299
-0.47989443 9.641478 1.2265465
1.3553762 4.068879 0.6016566
-0.94545 4.0331764 0.89578164
1.1105407 9.19108 0.34516975
-0.15240806 12.015607 -0.69177014
1.7157153 3.8852477 0.3631042
-2.2516003 8.475701 0.21317965
-0.74953365 4.5969195 1.371996
-0.36204877 2.9019122 -0.17321137
-1.8226001 5.4677224 0.47342604
0.47997954 4.6506495 0.4355843
0.027025178 8.982484 0.11545026
0.40764615 12.53611 0.065875866
-0.71779567 6.1714163 -0.5169395
-1.0476644 6.4388366 0.70947915
1.3195819 10.591176 1.0478952
0.18991263 7.9539795 0.045647953
-0.16473393 5.3729033 1.6961122
0.32131007 8.224203 0.6541281
0.4691225 3.8277304 1.56451
-0.8862375 10.470469 0.30378118
-2.2341413 7.278917 -0.38829404
-0.59997815 6.742076 -3.6662323
2.1851044 -4.379219 1.4509649
-1.7387729 5.8273783 0.12805021
0.111902535 12.810198 1.1987976
-1.5520769 2.1158595 0.036200255
1.2257861 4.8593955 0.17088386
-2.575451 7.2901487 0.4716313
2.420715 9.056154 0.51247513
-1.138331 3.6406446 -0.453574
0.0045069526 6.900495 0.5882745
-1.2538613 0.71215665 1.2663321
1.2733258 0.6011015 0.58514726
-0.17555434 11.142456 -0.010335701
-0.61989105 3.2648 0.63864714
0.8841203 6.438423 0.15678684
0.044189077 5.945452 0.9413262
0.5731125 1.3703142 1.0564964
-0.76928407 7.1376333 0.8153464
0.20359749 10.498135 1.3796306
1.4313971 5.9033966 0.20462762
-1.5809698 8.116819 0.20119134
-0.609664 9.180726 0.56923974
-2.2331676 -0.20315391 1.3104569
2.417601 7.6151047 -0.1618893
0.509361 4.2062163 -0.23379369
1.4877344 1.6902297 0.7339958
1.8146284 -0.9695747 1.0455447
-0.18065247 8.547823 -2.955142
2.2293005 -2.2168283 0.78030795
0.21827747 13.599579 0.49450818
1.7280934 10.0233 0.7026936
0.02752861 6.6600556 -2.7983637
-0.09100878 5.2437487 0.04451843
-1.9362195 -0.3430297 0.05927067
-0.15066867 4.6267056 -0.33798888
1.1126397 10.427582 0.42904955
0.22229409 7.5621815 -3.7535646
-1.3329412 7.520681 0.8198037
-0.5733774 10.193925 0.11591171
-0.25127572 9.169986 0.34539765
-0.40734905 8.0959425 0.49123624
-0.11455235 6.543616 -3.2055535
2.119567 -2.836369 1.2045211
-0.939727 6.6787853 0.35275233
-0.94793165 3.9707227 -0.50137615
1.0943134 10.143354 1.0504434
1.3921003 8.89893 1.3125997
0.088661715 13.54696 0.83917093
-0.9768922 7.730672 -2.8860145
0.5460403 8.517955 0.08073109
1.1588554 8.811415 0.40799952
0.89065325 5.546752 0.30905905
0.8808189 6.7963405 0.5166226
1.0924331 0.30402297 0.44747904
-0.36176473 9.33173 1.035555
-1.890632 2.2882693 -0.16964576
-2.139973 9.718766 0.75303966
-1.9200696 -1.5382936 0.86000776
2.0491874 9.186715 0.6133529
-0.28074542 6.2271657 1.0618616
-0.505923 6.087065 0.08817953
1.7036843 0.14781381 0.9191255
-0.6830541 1.5501333 0.4881046
0.103442274 7.6438913 -0.39243016
-1.5683321 7.2657466 -2.5582538
0.14024672 4.9326067 -0.3681757
-2.0934503 3.5327246 0.47793642
1.4282614 -0.11838502 1.2860061
0.7393841 8.361336 0.8264765
-1.7859883 5.446648 0.063749544
-0.02582412 8.074084 -2.8895562
-0.60953575 6.592672 1.3499874
1.5018289 1.8555514 1.0800607
-1.9275254 2.5502317 0.9145728
-2.1856263 1.1516114 1.1606113
-1.9820292 2.1442616 0.97068596
-1.3274828 7.580622 1.5037221
1.1397674 1.8478792 0.8998819
-1.737459 -0.8991358 1.603261
0.98686916 9.776898 1.118593
-1.0536318 1.7277552 0.33904046
-2.633189 -4.5951376 0.86688864
-0.63681924 6.031285 1.0182081
-0.24852869 2.5937989 0.52405435
-0.3426061 4.534925 1.350172
-0.7618154 8.779734 0.13726906
2.132576 -4.3953247 0.9652412
-1.4423991 1.3237171 0.8981183
1.1024725 -0.15056743 0.21193552
-0.43190888 7.7536182 -3.3625894
1.5784326 -1.2383363 1.3815843
2.2645488 -2.0204356 1.122199
-1.6741203 3.6920955 0.59759593
1.390917 10.650536 0.665922
-0.7160126 7.9861403 -3.075661
-0.6262101 9.214677 1.2978042
-2.058055 7.210886 -1.4492414
0.111647606 5.209868 1.0517623
-0.5230433 4.9632387 0.73287237
1.0438089 8.02647 0.58948153
-1.9745507 9.668034 0.3061102
-2.6337137 -4.3408017 -0.17479637
-0.7444568 6.7772756 -2.8985703
2.3207288 -2.961819 0.92199385
-0.9121008 3.2836251 -0.41002288
-1.650956 1.5687184 1.1647202
-0.18579024 13.062663 0.2705797
-1.5761709 -0.9495006 0.98255813
-0.11793842 6.156032 1.642888
-2.2738423 8.788611 1.0594912
1.507847 9.017888 0.964276
1.1184263 9.58718 0.7908213
-1.9244747 1.1813385 -0.062196385
0.19538446 5.249648 0.65341073
-0.55815417 5.3066516 1.4407501
-1.0155705 10.145837 0.15991072
1.6951126 3.412943 -0.14599079
0.7920481 4.8849325 1.58767
-1.5342203 7.056052 1.1610203
-2.4332368 7.466747 -0.12057106
1.8769455 -1.3101431 1.0527366
-0.34095538 10.619742 0.5617977
-0.72720504 3.6042738 -0.5248416
-0.13329731 11.079938 0.96366435
0.21260834 5.580447 0.860737
0.4643203 10.128968 1.5177103
0.8298339 8.039622 1.019258
-0.1552213 12.916059 -0.21773386
-0.044709627 4.1755137 0.3747621
1.0409237 0.6873424 0.29408243
-0.50693727 4.326507 1.6431017
1.6058577 5.221977 0.4965586
0.8276319 4.471513 -0.273642
-0.2583326 12.317603 0.09228229
-0.6096476 8.332886 0.7632794
-2.3529758 8.372259 0.90690154
0.21674694 10.341403 0.20824757
-0.8286683 12.296473 0.33659422
0.1546451 11.05389 0.25249082
