0.6051572 1.9219042 -0.05962222
-1.3627486 5.5989857 0.7404246
-0.30581957 7.098475 0.3660908
0.4743002 1.4508238 0.4299382
0.78137743 10.534064 0.79408115
-1.3605225 1.6980271 0.8926266
0.89998007 2.0579126 -0.25760886
-0.78584903 6.4984202 0.064984925
2.742609 -4.3703113 -0.39673036
0.17320555 4.0163198 1.5495843
-0.3107843 7.00046 0.7404797
0.026525177 12.100366 -0.18386659
0.6269771 1.5233067 0.061038453
-0.4811337 6.2774234 -0.13654287
-1.5919031 1.2071654 0.15718642
0.613672 12.995326 0.29349408
0.46403763 5.045913 1.4288512
1.2410192 0.98489624 -0.22885568
0.6815092 10.356365 0.18556516
-0.05358248 13.585577 0.5524065
-1.6982725 2.4006748 0.9385422
-1.3998737 1.7955521 0.48356658
0.7994676 9.374602 0.23645672
-1.0990746 6.2933235 1.0534384
-2.4477916 6.9621577 -2.3474193
-4.058893 6.932497 -0.80033326
0.42346776 5.4966645 1.396898
-1.0859172 0.58132267 0.22887588
-2.2527473 6.962161 -3.2778466
-0.49931043 6.7693043 0.2933189
0.9016844 4.206513 -0.48650616
-0.2669012 7.8298774 1.3249305
1.1677127 8.649876 -0.022343298
0.93733776 6.345629 -0.27065656
1.0675939 4.5848517 1.5523703
-1.2231412 4.4244275 0.7223578
0.8319036 3.201523 0.56626165
0.13826357 5.743998 0.49024805
0.08952059 4.166753 -0.22602586
0.39856434 6.312753 0.7471682
0.6149109 3.1053054 1.3990208
-1.1716313 3.3622153 1.4653233
-1.2588696 3.4509914 -0.049865056
1.1631101 7.8176217 0.8955219
-0.015557414 3.6924424 0.5218302
-3.3101103 7.62951 -1.7389598
0.22625953 7.780062 1.7854697
0.48444214 5.595862 -0.1193623
0.5720597 7.8046174 1.2717844
0.21050942 13.546697 -0.020040752
-1.688175 6.9347963 -2.0238698
1.8507144 -0.13155723 1.392053
-0.4649683 6.136672 1.8249513
-1.0863204 5.5173883 1.0656673
-1.6055436 1.3366684 -0.24829155
-1.2754846 9.4928875 0.26822552
1.5897919 8.765385 1.1031387
-3.626254 8.126036 0.7020559
-0.7831637 11.075264 0.5681393
0.68880147 4.633795 1.3838793
-2.0138376 0.6068721 0.91319704
-0.5146655 5.6219053 0.16002071
-1.1678997 5.897312 0.94983816
2.3264098 -1.5472362 0.9161454
-0.62023234 1.9048506 0.7977308
-0.21425822 6.902264 1.263127
-0.666657 5.2108607 0.18529293
-2.72193 7.892641 -2.3540761
-0.6937175 7.4618263 0.38445914
-1.2044383 2.6303647 1.3401612
-3.3764203 6.681232 -1.8860339
-0.61914784 9.531981 0.86718774
0.16974834 10.373299 0.93384874
-1.7770351 4.6087294 0.8305274
-0.22681299 7.1897554 -0.40152755
0.056877356 10.442795 0.46575448
-2.3915405 6.5908384 -2.190404
-1.4615189 3.2694705 -0.34104365
-1.7145776 1.97026 1.0209118
-2.2735975 -0.74427116 0.923153
-1.0321763 1.0006211 1.1611437
0.22116546 9.327498 0.8621841
-0.40319285 10.874061 0.002266351
0.6408221 7.6762333 0.17131695
0.14749126 13.143581 -0.13181044
-2.0922947 2.9208174 0.5202026
-2.4938293 8.125673 -2.725865
-1.6314403 7.771512 0.07452694
-1.2963825 4.8714232 -0.3526634
-0.44443816 12.434528 0.34258375
1.2803295 3.4810255 0.950325
-1.8905457 2.5133834 -0.13663724
-0.9178874 3.8635135 0.5167652
1.2555077 5.71048 0.5804144
-1.0200068 9.862191 0.7665946
-1.1692944 8.389613 1.0998493
0.16350357 3.3626587 -0.3509298
-0.46123078 13.603762 0.048171002
-1.0019968 5.76853 1.5941781
0.9092969 1.6485339 -0.18997747
-0.04481772 9.179491 1.3498133
-1.006254 4.7136073 1.2992299
-1.7336149 7.5616965 0.676621
1.1473137 8.269487 0.9137287
-1.1688749 6.137281 1.4366888
-0.92649835 4.6360674 -0.12811828
0.57375175 8.180884 1.279504
0.22872016 13.080064 0.24508935
-0.37419373 4.953436 0.068562634
-1.0931879 9.90897 1.1285355
-1.2572727 6.4679394 0.50284964
0.85960543 9.745535 -0.011931176
1.5637604 3.2325788 -0.29878426
-1.411199 8.258035 0.8052615
0.3797005 10.652416 0.2811304
0.61858356 1.10444 0.23298599
-1.4281237 1.2041904 1.3017608
2.5047207 8.504791 1.0602353
-0.03800561 9.619213 -0.16307075
1.0828637 7.185083 0.5192014
-0.07522052 7.610238 1.621048
2.16917 -0.39373416 0.44682187
2.141883 -1.8051224 0.6689184
1.5171437 3.0330174 0.06397142
-2.7075825 9.83252 0.5238832
-1.3978227 9.890279 0.103742965
-0.93802714 7.305282 1.5413119
-0.8157645 3.8618755 1.2089188
-2.1417968 0.3117718 0.2933228
0.04845992 12.377245 0.5251017
-0.0152412485 9.7558155 0.33959332
-3.8684096 7.027319 -2.4617176
-1.5453577 0.0907398 0.95714706
-0.25169805 6.7470174 -0.4753637
-0.44486016 2.4355166 -0.05822467
-1.9708389 0.2387591 1.0897391
0.26024207 7.537256 0.029651292
-0.67364854 10.113793 0.7243423
-1.6599271 0.8956081 1.178164
-3.5912757 8.097645 0.29428524
1.1276324 7.0128546 1.2690054
-0.4745881 11.87554 0.6848411
0.71221185 5.3095293 1.715697
-0.40795538 2.8352792 0.45797962
-1.7829124 7.1931977 -1.7525458
-0.31006628 2.4583743 0.31573468
2.0739567 1.4958707 0.27932382
0.4134245 1.8447839 0.2921972
2.437439 8.954512 0.976689
-0.09662851 4.8781033 -0.6210213
1.7421327 2.1206207 1.0375911
-2.5458903 7.10173 -1.6672796
-4.096266 7.6478148 -0.28528827
-1.6713221 7.5845957 0.3648655
-0.6533031 11.99404 -0.5326385
-0.9111939 10.661571 0.7607735
-1.3672332 -0.50008386 1.182195
2.2665825 7.3236837 -0.13006842
1.6446937 0.50932866 1.1403207
-0.42681438 7.398268 0.67169476
1.1916548 7.206631 -0.01369599
0.31152257 5.3730645 1.7846363
0.6403161 8.137518 0.13069598
0.024064703 4.8200088 1.5147631
-2.022223 0.65768087 0.09817217
-1.104843 2.2512977 1.3296033
-2.1783512 -1.1045196 0.80596167
-1.0488689 3.728083 0.8585826
-0.30503803 8.048527 0.721958
-0.43768662 8.574608 1.0352389
-1.6299704 10.636414 0.9540726
-2.318637 7.348136 -2.2629423
0.4184373 8.930403 0.9216177
2.0985322 -3.8919525 0.73772275
0.69955474 3.8563728 1.2231587
0.50591135 6.398181 0.022068169
-1.9437128 3.5125878 0.15558003
-4.0835447 7.279495 -0.1918829
-1.7436885 1.1356223 0.5103988
0.95470816 8.563882 0.6502399
0.9354455 5.6435995 1.607288
1.1666536 0.032459512 1.0673414
-1.0721507 3.0496902 0.024715971
-1.3347698 6.9220424 1.1218718
-1.8628916 10.468545 0.31821263
-3.2500465 6.4265366 -2.9356875
0.11664231 9.604012 1.1998914
-0.6774614 12.713144 -0.47835335
-1.547252 0.82342696 0.18449263
-0.93868095 6.661272 1.1649312
0.1514341 5.771671 1.8447238
0.9741439 7.2573586 1.5835747
2.2824907 7.0624695 0.21773762
1.349811 -0.15790026 0.60730606
-0.13826197 11.623054 -0.88490295
-0.009888343 3.5835073 -0.078776926
-0.16906878 6.123709 0.45714602
0.35008848 7.168273 0.7080599
1.243317 5.2804637 0.72878444
-2.0236988 8.648576 0.61605203
-0.47086886 13.106787 -0.528177
-1.3675107 5.5075126 0.37163365
0.92940056 3.0186157 0.18382186
1.5204875 2.7975857 1.1204525
-0.49152046 7.6190577 0.040842567
0.58843154 13.082412 -0.089618094
-0.15841642 8.427643 1.6225986
-1.5050495 3.4072213 1.2182988
1.2455925 9.811244 0.08845362
2.0202713 -0.7421266 0.30751687
-0.83935314 6.937435 0.07947839
-0.5468046 11.391477 0.47037202
-2.058757 9.473169 0.51015955
-2.8829012 9.032817 0.88948536
0.51930606 7.4274797 -0.25259453
0.9795898 7.8365936 1.2748243
-0.26340154 7.503771 0.33484167
-0.6817901 4.8554177 1.0813204
1.0461899 5.257784 0.08353873
-1.0600518 2.6239111 0.60328895
-0.8807887 12.532139 0.2562738
-1.0307648 4.1080203 -0.467112
1.2562982 3.1304471 0.32328972
0.42530543 1.8066416 0.6801937
0.7530915 7.6186323 0.95542294
-4.046006 6.84869 -1.1668115
2.265581 -3.9379199 0.3728406
-1.7082375 7.1776323 0.6274873
2.8591084 7.5425687 0.7979669
-0.7954205 1.2597464 0.9188734
-2.451213 -4.6178813 1.3198568
1.5264244 6.3712773 0.8553854
-1.5901843 -0.7529552 0.8725658
-0.31772405 12.511386 0.70184666
0.8815958 2.8774364 1.2151183
-3.734188 7.3248987 0.15549904
-1.6835666 8.924184 0.52398276
0.7444469 9.836933 0.38075072
-2.1469774 10.268671 0.21906607
0.1376846 9.462803 1.581776
-0.7916083 8.47964 1.1662512
-2.5595953 -3.9538443 0.7423899
-1.4718133 6.448433 0.97686887
1.5766107 5.533437 0.8099242
0.065556124 10.864938 0.46698615
-0.84471625 3.4638662 -0.113375165
0.50934494 2.5812817 0.6114408
-1.8268986 -1.5361943 1.4689246
-0.23426709 13.473064 -0.5045681
2.0565896 10.233411 0.49039254
-1.0192035 5.757287 0.57995594
1.0661612 0.74683166 1.1436327
0.22068973 4.839844 0.75110996
-1.3932451 7.9669695 1.1799313
-3.8998299 7.198036 -0.8562261
1.5995647 0.9348948 0.18433015
-0.17434688 8.803496 0.37868574
0.36496526 2.4430115 1.1877974
-0.97507185 9.1728945 1.2141399
0.08723636 3.9366684 0.13036734
-0.6712349 5.2795534 -0.463876
-1.8907609 9.874964 1.1089008
-0.14773078 8.243397 1.2649405
-0.77816767 4.2791495 -0.18573347
0.23823646 12.730007 0.37879914
2.7946675 7.4513493 0.35453406
-2.1198695 -0.035870604 0.07649161
0.90959 8.105615 1.5853413
0.67584896 2.8771548 0.38971958
0.46103138 5.5124493 0.6139966
-0.57675207 3.0884979 1.2421557
-2.674329 8.240191 -2.4281178
-0.5604637 5.8922954 1.4699469
0.7213873 6.517309 0.7521524
-0.1762727 7.92187 0.3422326
-1.9193738 4.6126695 0.44759503
2.2873187 7.9311953 0.72726536
1.8659626 8.58795 0.9177959
1.3403533 3.7946286 1.3186182
-0.15229276 11.873423 -0.4734987
-1.7321831 9.989776 0.80605245
-0.030549511 5.574171 0.83343667
1.1508642 1.5655488 0.11914503
-0.34556237 2.885612 0.84826046
-1.0856074 0.6190045 0.98654974
1.4632267 7.1455016 0.63247406
-2.718671 6.763949 -2.946547
-2.3182876 6.844961 -1.8971446
0.64201355 6.840247 -2.783843
1.9163156 1.3615882 0.87393457
-0.49434248 3.5490494 0.5258696
-0.51131934 9.072334 -0.24584945
0.6292945 7.1622524 1.664357
-0.21918714 12.122802 0.5031842
0.06535842 12.356469 0.15382475
0.7186711 5.8026557 1.3257247
-2.0413291 -1.1768714 1.4881542
-0.23064454 6.65891 0.93483305
-0.046640787 8.218455 0.09025455
-3.0735242 6.7335525 -2.1053286
-0.550462 8.81668 1.6576836
0.077214904 5.8982635 0.12323933
-0.848104 9.172961 0.840525
-1.1794449 8.031967 0.15646835
-1.6311587 0.4718997 1.0730252
-1.7695798 4.5828247 0.06457982
0.14059749 8.702708 0.5889845
0.6075488 12.74453 -0.0783691
-2.5879312 6.318731 -2.8755682
-0.7803093 5.4398465 -0.091729395
-1.8221682 1.2602992 1.271099
-1.7007594 2.8142226 0.3757843
-3.197053 8.75753 0.78863233
1.2451344 4.9201 1.3890662
0.45461228 10.36214 0.5632857
1.8533559 10.473936 0.7023217
-3.9022188 7.8929863 0.44069517
-1.0063351 4.924949 0.834474
0.9950448 10.104756 0.13966464
-1.9738411 -1.3814136 0.7260624
1.3260872 6.6676474 0.25219867
1.1662147 10.793854 0.6310671
0.7166501 8.230879 0.5409196
1.3275682 3.4122968 1.2932565
1.5922393 3.2004845 1.0790838
-0.083096385 8.378086 0.86892766
-2.1145434 7.3661513 -3.2483437
-2.1439147 1.6864691 0.39856046
-2.7932665 -4.5380893 -0.7181196
-0.7460598 9.145162 1.5813863
-1.978763 -2.6177711 1.3210791
1.0508667 10.120854 1.3715513
-2.0336185 3.8351326 0.42850965
-0.4119045 12.709801 1.0963792
0.99802107 0.38079885 0.86656797
-1.9895858 -3.946274 0.7949047
1.4510481 4.738157 -0.15212454
-4.201658 7.3397517 -0.62888044
-2.0292947 1.3052883 0.22137396
-1.4116247 3.1913474 0.77163136
0.6603306 4.627589 1.7717383
-0.7706418 3.4061043 1.390915
-2.2122476 -0.06327612 0.94982207
-0.45465067 8.574603 1.390751
2.1375163 8.76444 0.68812865
0.957411 5.099819 -0.37234274
-1.2258172 6.67324 0.82211864
-0.1224105 13.710132 0.1359294
1.1658945 4.2455993 0.94799024
0.08804931 5.6238737 -0.5961684
-1.5307894 2.785261 0.7409271
1.2033262 4.9627266 0.99142957
1.5539436 10.19746 0.58646566
-0.6873217 5.5153 0.50843817
0.92818445 8.731802 1.2835064
-1.6207545 8.519842 0.053627674
-0.94175434 8.356805 0.7995736
-0.41523033 2.1673267 0.5577359
-1.1916476 5.5133667 0.003131509
0.40774974 2.9889889 0.6765041
-0.5833038 6.3433347 0.4287129
1.471515 8.95064 0.48673484
0.2731536 3.6300998 1.5421482
0.5499562 10.036259 0.7567719
-0.020965016 7.316404 0.73234665
-0.07338392 7.947473 1.0042609
-1.8879975 -0.80581903 1.5694168
-1.0839204 0.22459929 0.5390979
0.08447631 11.40202 -0.13320458
-0.9360777 3.4565372 0.63852704
1.3272905 6.539566 -1.8397439
-2.7705636 7.4802523 -1.7978014
0.3047731 9.958008 1.0768343
-1.4289027 5.2651415 -0.24902183
1.5250527 9.717096 0.48060933
0.57082546 6.035777 1.028152
0.7707243 5.397174 1.3302921
-0.97332174 10.278814 0.99041784
1.3167369 -0.7957478 0.24022622
-2.149429 -4.5811586 0.8978583
-0.27118284 12.941956 0.7701243
-0.908767 6.725917 -0.2541588
0.1350986 5.185505 -0.6079363
0.64981246 1.1128719 0.6381566
0.25203392 8.523866 -0.25226703
-1.424302 2.0732682 -0.291576
1.3327744 4.9217267 0.5906483
0.25551006 6.5373034 0.40326124
0.32002646 9.059735 0.5565917
0.469173 5.991789 -0.05653028
2.0602124 1.9009308 0.4255267
-3.3254533 6.250883 -2.5779433
1.8623677 1.0643929 1.1374197
1.2998488 6.9016953 -1.8564249
0.13779123 4.2412796 1.2049603
0.44996423 9.21452 0.17595759
0.9361162 -0.7384528 0.55659646
0.4923316 13.349225 0.14119408
2.0791926 -4.154518 1.0726395
-0.76931614 2.3693721 1.2936902
0.7296328 7.0424666 1.3023455
2.0277157 6.7773924 -0.7571783
-0.5006931 2.3038082 0.9202291
-0.9425253 2.5221548 1.0046239
0.95177555 4.8436294 -0.025640247
-0.88467425 8.356472 1.5414317
1.0935023 9.607201 0.37521824
-0.16772047 8.033968 1.652285
-1.9589916 6.821337 -1.699561
0.2790775 12.614157 0.9514624
0.05712033 8.612336 0.10440244
1.1062787 3.8457677 0.6720498
1.2762684 5.6758623 0.12219572
-1.7825887 0.3344614 0.65091634
-1.0386348 7.333105 0.52801573
0.5200127 4.4342694 -0.5142488
-0.46236455 10.1359415 1.0734543
-1.7969978 2.3920794 0.53946686
1.0092158 2.287368 1.3292556
1.242366 0.20894703 0.051184077
2.2466488 7.0775757 -0.74952805
-2.2102318 -0.092627816 0.4802113
-2.174566 2.4798121 0.5607017
1.315802 1.4842497 0.880699
-1.099086 4.0632086 1.5797142
0.68532526 3.6671758 0.14473456
-0.43105972 3.807516 -0.5294901
0.07220803 13.535909 -0.37255943
-0.64048773 3.094366 -0.013815324
1.673562 -1.045865 1.4024541
-4.0409117 7.5571012 0.15250817
-2.0277789 -1.9549314 1.4002179
-1.5000057 6.1194515 -0.0820096
0.063778974 3.7909575 -0.45200074
1.4638318 8.62456 0.23000711
-1.4230574 4.7587204 0.73592764
2.1461616 -1.4002212 0.6239603
1.1745384 6.6299744 1.2652266
-1.6296304 3.9589682 0.40475386
-1.5116706 9.132652 1.1719946
1.592815 9.860153 0.16900651
-0.48234376 8.149335 1.0503755
0.31288332 9.235618 1.230804
-3.083718 7.7954555 -3.0793133
0.66079825 3.5250204 1.5295327
-1.1556249 9.610606 -0.06015729
2.1786568 -2.2207253 0.7290128
0.5056603 2.524703 0.22015902
-2.9308279 7.047808 -1.8011019
-0.06693994 4.7110014 0.083005495
-1.1223803 10.194828 1.395824
0.11171934 7.641489 0.3729356
0.6063676 12.610315 0.31079575
0.61420876 7.233816 0.10542998
1.7701273 4.0381236 0.8440612
-2.9961786 7.5506845 -2.865736
1.2805988 2.292827 0.35062662
-0.8231476 13.066999 0.7781216
-1.3515569 10.139543 0.89845616
-2.6961374 6.7465835 -1.9249309
-1.468446 2.312439 1.244149
-1.0425183 3.063647 0.66398555
-0.21705349 11.426645 0.66059905
1.2913264 6.2345624 1.1339064
-0.21865039 13.246117 -0.21804467
1.1025587 9.410014 -0.058578566
0.98380226 1.5914204 1.081411
0.96217346 5.070547 0.43040234
-1.4165905 1.952841 1.2918822
-0.6635115 3.448985 0.9870748
0.97950816 4.6306057 1.1323967
0.78171647 1.7098796 0.70084405
-1.8352082 3.1041472 0.7327532
0.84984696 5.360684 0.69287705
1.0705355 10.72312 1.0117995
-3.7337742 7.2032127 -0.21006078
-2.2234664 2.0651248 0.55791163
-0.8659572 4.5175514 0.95846623
-1.0176458 7.7825875 0.48725
1.169467 6.7585883 -0.070100136
-1.5085593 4.5086255 -0.25463802
0.66300696 9.446423 -0.12793575
1.3604417 7.6337466 1.1858913
1.606225 0.5906287 0.47176477
-0.49802735 5.4123316 1.8245261
-1.8894454 -0.8795667 0.62322664
0.112411305 4.5432644 0.4438646
0.77619755 8.533812 0.24903649
0.40038034 8.801093 0.24354929
0.32488874 7.1420918 1.4201498
-0.33906692 5.9876876 0.1455617
-0.36489213 9.566868 0.18177631
1.5032296 7.5308814 0.7589751
0.55815417 2.7683492 1.02164
0.3723247 5.181179 -0.06841392
-0.3303728 8.882576 0.04910554
-1.3972802 2.7042475 0.013565775
1.1342144 6.506883 0.84397024
-0.74228376 5.695783 0.8807738
-1.1422293 5.968095 -0.12352994
0.20987892 7.3523 1.7969097
0.5099558 9.19943 1.62142
1.3005598 8.052155 1.265169
0.8572244 9.773753 0.7530819
-0.09615745 12.2558565 -0.5705547
1.6077654 0.32664868 -0.19098958
-0.953597 8.513262 -0.23882648
0.42890432 9.653379 0.22266735
-3.1947455 7.390485 -2.2959867
-1.770333 9.805356 0.43884626
-0.30341512 9.92477 0.7046524
-0.5838944 7.860441 -0.2717663
1.072508 9.0265045 -0.08650556
-0.16278748 12.556438 -0.005495216
-0.22268106 4.9114423 1.1557007
-0.041618213 7.229187 1.4091094
-0.34279022 4.531291 -0.61092174
-1.9382925 -4.624682 1.308846
-1.6722963 9.700039 0.094658144
-0.09136323 13.158793 1.0394952
-0.6309229 2.7123258 0.13715328
-1.1717607 4.285703 -0.056922775
-1.0992182 10.744473 0.41004616
-2.5000746 6.6039677 -2.6211176
-1.6461831 3.6873412 -0.23412418
-2.0788453 9.124005 0.56564295
1.5581467 9.820952 0.90531677
-0.7184147 7.067308 0.44839108
-1.4135399 2.4916775 0.44242796
0.5557507 3.2786288 0.2923776
0.20951429 2.7773929 0.98458624
0.8126187 6.1552105 0.7313588
-0.89360577 4.0772676 0.16636603
-1.0224855 8.952536 0.5536288
-0.78529364 13.075407 -0.2685442
-1.3265632 0.9094102 0.53469133
-1.0703623 5.0591135 -0.035754718
1.6476411 4.5940714 0.1641167
-1.5776564 0.26810053 -0.15016887
-2.783648 7.395903 -1.3949811
1.3716223 6.339494 0.48354635
-0.38099292 4.8266587 1.5083373
0.5134738 1.4255381 0.83222127
0.06814421 3.459093 1.2125702
-0.93849415 7.6647644 -0.21497679
0.5457361 10.318503 1.0356034
-1.7722933 6.8225875 -2.7475712
0.26378706 5.5095224 0.17868602
0.7878453 10.951588 0.73328465
1.2103409 2.6195712 -0.3853958
2.0654116 -0.058844615 0.30369982
-0.94977343 0.9446581 0.7388418
-1.6037893 2.8857415 -0.29753077
1.7150072 -0.77010524 0.06866165
-3.2098556 8.780848 0.38761336
-0.73708963 12.329612 -0.3394156
-0.92871904 8.085796 1.1485395
0.5613032 7.946131 1.6351779
-0.85808325 2.663023 -0.1941725
-0.51517934 1.7963015 0.42501667
-3.9012995 7.875143 0.029810356
-2.1653266 0.22967683 0.6811366
-1.6231631 7.042218 -2.406264
0.2284651 12.015566 0.35580838
0.8762862 9.40394 1.5349084
2.0005126 7.00832 -1.0202081
-0.44307873 7.680985 0.95963
0.5527192 5.71399 1.7124063
-0.8112658 13.370068 0.004229365
0.049030773 7.2189054 0.33942747
-0.98394305 3.0387616 1.4050462
0.21157996 2.5966938 -0.043572318
1.855271 1.4659148 -0.029309476
-0.38334224 5.338463 -0.12959029
-1.3098936 7.8551598 -0.16394834
-1.720612 -1.8321965 1.2382342
-2.678544 6.85263 -3.331201
2.0452137 9.227095 0.18154162
-0.20452124 5.8693423 -0.55288535
-2.560122 7.1787124 -2.020232
0.71414757 3.9613633 0.4866769
1.2976203 5.3127995 0.37837338
2.2299762 9.693042 0.8737801
1.8251551 -2.1860301 1.1678084
0.17570174 6.975638 1.8144417
0.5589664 8.799608 1.6281285
1.5041422 2.8519204 -0.3331882
2.229612 -3.1285264 0.79752076
-1.7468562 1.5869544 0.34376058
-3.537922 6.9028916 -2.7009792
-1.2561753 7.305439 1.3591052
-1.3378351 0.24279284 1.2639766
0.16649288 12.233021 0.8467048
-2.2817283 6.901383 -2.8148704
1.9372367 9.610904 0.19452752
-1.1132333 7.31519 0.97153014
-0.099353254 11.900888 0.21271454
-1.2610286 0.24159908 0.17001739
-2.4695606 7.305508 -2.6032243
2.5360913 6.9678793 -0.114314556
1.2586266 1.817575 -0.29475915
-3.0317564 8.381466 0.5319559
-1.3660352 8.729851 0.3792204
0.2447984 2.450639 0.8080683
0.60337317 6.1931634 1.3801067
-0.93515664 3.7257109 1.5766919
0.22057879 8.401944 1.3866819
-1.0228515 1.7998548 0.66825366
2.0374415 0.6910983 0.35982177
0.9603622 6.840079 1.5933253
2.5524108 8.663907 0.7405511
-1.3397688 9.391509 1.3219519
0.7793587 10.68491 0.43139616
-1.315075 7.1000037 0.7297229
-0.7449758 8.752832 0.80420965
-1.6431301 3.211768 0.40308136
-1.1325984 6.9231834 0.45314333
2.6219907 -4.0330873 0.22666447
0.4692334 6.9971743 -0.34160706
2.2487674 -1.1151989 0.81572485
-2.664666 -4.2974052 0.66005564
-0.27340904 8.741251 0.75472414
-0.7995084 2.9359612 0.9672009
-2.054944 -3.7443137 1.2150874
-1.826704 8.937789 0.929814
-0.8072365 2.7240586 1.3671163
2.136439 -3.2646785 1.1423092
0.25207546 3.57381 0.18298586
0.8583156 2.456327 -0.35439423
1.6243483 1.3727105 1.1905382
0.5818656 9.435058 0.5579488
-0.29432422 4.4662266 0.38280112
-1.6639296 4.9805326 1.0260226
-1.3216887 0.92752886 0.93787307
2.7155273 -4.6353393 -0.13511078
-0.23250286 3.2480593 0.6259315
0.3653119 3.8003366 -0.19039197
-2.0644221 7.9846964 -2.003181
-1.7874635 -0.33736858 1.5438949
0.3038359 8.341085 0.32357427
-1.1437043 4.9374614 0.42608273
0.4559671 12.2851305 0.3092165
-3.0523903 9.149989 0.5546745
0.95607704 1.3229029 0.75939804
1.3508728 0.6197805 0.8234462
0.8552509 10.49374 1.271119
2.1400836 -0.10573114 0.74604124
-2.9601152 7.03683 -1.4161766
-0.5383724 4.0816097 0.48818213
2.016664 2.283036 0.33236474
-1.7702758 10.285767 1.0905317
0.26240858 6.1184764 0.38341108
0.7802562 5.513972 -0.4061258
0.89269334 4.9090476 0.788779
-0.9372761 12.79907 0.5151427
0.8305048 6.7763195 0.9805102
-0.3382041 9.177236 1.5773757
-2.5650256 6.399549 -1.7443116
-0.8736081 4.271367 0.5671465
1.5626848 -1.4501616 1.2463416
0.12705432 6.6117363 1.0375531
1.3960437 3.8503394 0.06829246
-1.4162178 9.669518 0.58874375
-2.950068 6.215272 -2.754578
-0.5245161 12.46776 -0.051756784
-1.7299404 0.6328456 -0.19958796
-0.68856204 8.902148 1.211029
0.16750093 3.5615318 0.85993093
0.25504848 8.191082 1.0564823
-3.0608826 7.6756754 -2.4951355
0.15119691 7.34353 -0.33707726
0.3963396 3.670923 0.48275518
-0.8688654 7.3988814 0.08417338
1.891023 9.846852 1.1087261
0.4222286 7.392416 0.38373122
-0.36003354 12.158783 -0.30282906
-1.1994259 2.847188 0.9768407
-2.9879332 6.4392195 -1.7951633
-1.6072576 7.336381 -2.1072044
0.78958327 4.7155733 -0.5069782
1.8290184 -0.80778956 1.0376382
-1.0536377 3.6603274 0.20435935
-1.0651981 5.279428 -0.34851837
-3.2761126 6.619452 -2.4894142
-0.2918632 3.908435 0.7231752
-0.7372063 13.417389 0.38432893
0.7334493 9.026637 0.5300969
-1.860278 -0.45767835 0.47428665
0.9662941 5.9386573 1.0609181
-2.2758083 6.2606134 -2.5461674
0.8591378 -0.2982329 0.4788602
1.431251 9.032321 0.10244969
-1.3035738 3.6945302 0.47466075
0.052733522 12.727424 0.70282584
-2.0616019 6.9447904 -2.1840625
-0.9199774 12.957441 0.09673874
0.37627545 12.038255 0.017951632
-1.1825383 -0.14509203 0.793805
0.72919136 5.247061 -0.1140882
-2.3473563 -3.9246223 1.1037197
0.8155646 4.054871 0.84367514
1.102373 5.2630157 1.4849708
1.4761817 10.009858 1.2574456
-1.3317248 2.2724104 0.050058477
-1.8886232 1.4970355 -0.047749415
2.1990626 -1.7083782 1.2681804
0.750608 0.3709153 0.49856186
0.27240556 11.957036 -0.6381812
2.3622465 -3.6317236 0.60912716
1.561974 -0.07949232 -0.11267271
-0.20458911 8.040692 -0.3136719
1.7988983 -0.22136143 0.637235
-1.0392528 1.9865612 -0.25936484
0.14937599 6.332282 1.4409775
-1.432383 5.682056 -0.20891406
-0.85842377 9.359667 -0.1566916
-0.6723477 1.5214875 0.21535793
-2.8768494 8.069792 -2.8074052
0.87788373 1.2384506 -0.095149726
1.5800048 5.0050673 0.108676895
-1.1610049 1.9018825 0.14037415
0.24924771 4.6503067 1.8618213
1.5948675 6.8362255 -1.7250242
1.8175414 6.929268 -1.3893814
2.0478578 7.0719223 -0.47869444
0.26383093 4.1589518 -0.565745
1.1322408 5.5078626 -0.22389038
-0.7061413 10.804234 0.29463023
1.193709 3.259915 -0.11731087
-0.5918459 6.516309 -0.39480147
-2.2079384 7.3091803 -2.9002585
-0.49121308 2.1080537 0.14382058
-1.2642882 6.129927 0.69912
1.8347887 0.68751156 -0.01003993
1.3734955 2.044568 1.2379
-0.55867577 8.40399 1.7253184
-1.1003267 5.059116 1.5998614
-1.3033489 2.440809 0.8765539
-1.5926533 7.334518 0.05630874
-1.5962855 4.9153166 -0.08872325
0.77780473 2.2116053 0.15808181
-1.6826396 8.595093 0.85214156
1.2444811 3.045572 1.1807041
2.6347218 -4.5966783 0.29452956
-0.43871897 9.4990425 -0.18033789
0.4978721 9.628051 0.91964835
1.9498155 0.2528954 1.2943395
2.1697328 8.692936 1.1215348
-1.5807084 6.5079494 0.26383495
-0.19946215 11.507408 0.22761685
-1.934009 6.480474 -2.6642568
-3.4771242 8.46874 0.53113747
-0.8743251 1.66754 1.0023781
-0.11842917 6.534858 -0.1800025
-0.86792046 4.6927977 0.5872696
0.1595837 13.150377 -0.5826546
-1.546598 -0.33657464 0.79266226
-1.898028 6.6078873 -2.0124755
-0.9012015 9.558923 1.1486071
-0.8276526 1.9870566 0.3955335
-1.141048 0.89500296 -0.01418686
-2.7131312 6.9547243 -2.6268919
-1.3740842 0.48320267 0.79412705
2.7384987 7.9177237 0.87874794
1.6551528 -0.7741709 0.46713442
0.81758 6.046139 1.6561931
-0.17828082 11.461672 -0.42056873
-0.6217829 5.864423 -0.14286467
-1.868925 7.92208 0.4895755
-0.821602 4.8318157 0.19244598
-1.454293 6.1219516 1.1523308
1.4063066 7.217034 1.0777427
-2.177486 1.3013494 1.0498893
-2.0283253 6.706431 -3.0423126
-0.5005907 13.188753 0.053924043
-2.017946 7.4170885 -1.5602621
1.1497505 -0.4692384 0.30827364
1.2114546 5.5949497 1.3043803
0.8140489 3.2095807 -0.11452386
-1.5899023 8.439589 0.45904946
-3.273983 8.3483 0.24924336
0.17806183 3.2944677 0.49117586
-1.6231406 9.3002205 0.8050721
1.0786963 8.980305 0.6998403
0.5177307 6.590113 -0.38572022
1.2824792 10.395608 1.184265
-1.1922146 -0.116404966 0.37408155
-2.327311 -4.596194 0.4351763
-0.97207373 6.5169053 1.5558181
1.5204473 2.5934985 0.061307173
-0.5306786 4.6848345 -0.2788111
1.5519947 0.75189567 -0.22166754
0.3805627 11.033924 0.83740723
1.5863926 1.6130787 -0.25403926
1.5384564 -1.3569921 0.84506243
2.2974 -4.3036222 0.3088823
1.8691046 0.04940518 -0.010719207
0.6288272 4.543513 0.13611297
-2.046484 7.726532 -3.0324767
-0.4476476 8.044832 0.049199603
0.22248046 8.195413 1.7481242
-0.44175974 3.81891 1.1123168
-0.9314936 2.2715309 0.09755274
1.7056643 0.8069614 0.8689725
0.5635644 7.543246 1.647487
1.7226667 4.8329062 0.4568366
1.4369698 2.4144065 1.1110421
-0.13416159 7.381007 -0.026551582
-3.0823636 6.955315 -2.4741404
-2.6993096 -4.202728 0.2825226
1.7690171 2.9045563 0.8323962
-1.9921167 -4.307553 1.539225
-1.8122399 7.453895 -2.9348245
-1.1999948 -0.64556736 0.8596678
-0.8239177 3.32682 0.28471583
-1.5132363 -0.36633262 0.32306644
0.7224982 6.631565 1.3383769
-1.8327132 4.9969788 0.25160936
-3.0811834 7.3737273 -1.9461865
0.88336086 2.5290327 0.36168224
-1.2731574 4.411706 1.1012737
-0.22441597 5.0179777 -0.2839165
-0.6522782 11.956958 -0.11901598
1.5839417 3.3093534 0.4574589
-1.2699052 7.4315343 -0.16479878
-0.773514 1.211335 0.46743098
-1.0101415 5.328903 0.28857186
-0.9400203 6.909573 0.80898285
2.587175 7.8122625 0.4983377
-0.25130552 5.356008 -0.54952145
0.14497058 9.401194 0.47941503
-2.7511587 6.685161 -1.5066282
-0.42205077 12.779442 -0.7369199
-1.3637955 1.5197849 0.12113178
-1.0623751 2.615579 0.16449183
-0.5388453 5.646463 -0.4595221
-3.9047318 6.6261415 -2.5460281
2.30582 -2.8709219 1.0825056
-1.605665 4.5875444 1.2053735
-1.9870287 1.8687253 0.10848301
-0.5608752 12.390772 -0.7208914
-0.660762 5.762309 1.8050863
-0.80688626 9.595846 0.2131895
-0.35729894 5.8507133 0.8036262
-0.050925627 6.781581 0.23825899
-1.2198625 9.413859 0.94391376
-1.520364 2.4825003 -0.30541778
1.9098032 -2.451206 0.9154169
2.0709188 -2.5392191 1.2437346
-3.6134057 6.9967995 -2.039144
0.79351693 3.956037 -0.15816447
-0.9482295 6.1748276 0.4763905
0.855038 7.1265097 -0.17325597
-0.700968 9.7820425 -0.09622563
-0.47593057 9.8926525 1.4488095
0.4871315 4.003796 0.16372843
-0.8426387 6.2093096 -0.31480065
0.9899469 5.2775154 1.0597254
0.83550066 10.209894 0.5308597
0.93528044 6.9510083 0.19919463
0.88026774 0.068131246 0.3449601
-2.1126044 8.013767 -2.7156289
1.0963787 3.6695557 -0.12413377
-0.94849694 8.100532 -0.2067309
0.5305738 2.3304675 -0.16510518
-0.6108972 11.177947 0.1648585
-1.4965087 5.4179153 1.1546447
-0.55508816 8.279318 -0.27069977
0.35981938 9.667823 -0.12485063
-2.201076 -0.38179278 0.21195085
-0.112463534 4.306477 0.060718924
-2.9371526 8.1422825 -2.112246
1.5283909 -0.11875686 0.97521305
1.936392 0.34958187 0.19871524
-0.07563327 3.7946634 1.2757056
2.1443837 0.97369015 0.90377206
2.1766942 1.128623 0.5406754
1.4324975 10.203158 0.20902868
-0.26284796 5.692828 0.4684605
-0.53520155 8.674243 -0.28074038
-0.6706081 3.794139 0.78416824
-0.47636092 3.1586378 -0.38901857
-1.3260118 6.528988 1.3210315
2.4494343 7.4950037 0.19905213
-0.79417515 12.452615 0.6363437
-0.63507414 13.354707 0.7253546
-0.1777359 4.137102 -0.56326014
0.49189308 2.7024393 -0.30635408
1.1218204 2.26702 0.97458684
1.3060287 5.098868 -0.18035033
3.095586 -4.573832 -0.16917714
-0.5098268 3.7389865 1.4950866
-1.1169391 3.5971038 1.175861
1.2002538 4.2036076 1.3993453
-0.65118384 9.753256 0.5580379
0.34529442 6.943016 0.33515486
0.5553531 8.650704 0.58051515
-1.3334675 3.7706766 1.4689331
-0.78902984 2.0501144 1.1182282
0.3735391 7.3404675 1.0469533
0.8938636 9.518713 1.1216263
0.67160153 5.6139674 0.98304445
-0.7316169 2.2358906 -0.19688985
-0.6423144 9.534054 1.5367228
1.5199795 4.8489776 1.0834823
0.16295286 6.5092616 -0.5068928
1.6378752 9.187399 1.2029833
1.0212206 3.5968902 1.4170451
-3.1154482 6.7313056 -1.6075252
-2.085169 -0.7080642 0.13027918
-2.1992407 -1.5862097 1.3231304
-0.2371319 6.4836755 1.7443483
0.8354444 6.7342486 -0.27186227
1.8852556 3.1123424 0.12214801
-1.8567668 3.8429835 0.8002465
0.9408489 8.315331 1.249715
-1.372268 10.441982 1.2022754
-2.0947905 -3.3636036 1.243336
2.3037474 -1.9443405 0.96554893
-2.9778292 -4.5826616 -0.36995167
0.8290393 4.2614584 1.6129673
-1.9293201 2.7151635 0.8149719
2.0179818 2.2285671 0.7467991
0.024187678 9.69789 0.8212375
0.46403593 6.482647 1.1372622
0.8910906 8.544919 1.5918568
-1.9039426 4.2232347 0.24186249
-1.0638716 8.796659 1.0774549
0.54021007 3.943695 -0.5604465
1.5397105 4.37067 -0.104357235
-0.78607154 6.0786195 0.8436303
0.6920728 9.096709 -0.18701957
-0.44658762 3.1705732 0.27310464
1.8294021 0.4716873 0.76098245
1.3818587 1.874337 0.42345396
-2.355773 7.9548764 -3.0250084
-0.5492077 4.509619 0.6714955
0.36754048 10.053896 0.34258842
1.7180588 4.178494 0.16009438
1.2012311 7.611204 0.015985383
1.2717267 1.3783742 -0.26158404
0.22962016 11.690541 0.09351519
-3.1766777 7.9384074 -1.888545
-1.6622717 10.333915 0.6760717
0.563762 10.012304 0.006375713
2.3494723 9.299256 0.8908237
2.131731 -0.1269749 1.1547035
1.5241047 1.3656889 0.13596338
2.6069884 8.265745 0.7524823
-1.7833754 8.209458 0.743095
-0.13467443 11.140369 0.18602091
-0.03886973 9.882512 1.4505765
-1.1940184 8.161783 1.4576113
-0.13236457 6.035126 1.4815688
-2.430433 9.696083 0.24041179
1.104576 2.8829951 0.56525564
1.3440113 4.1801343 0.2596703
1.1944168 1.2219098 1.134261
-2.1467512 7.638198 -2.0922635
0.18849476 4.958961 1.1454042
-0.19174941 3.145658 -0.13642642
-2.279936 8.154114 -2.3530595
-0.15136723 3.4274683 0.24753809
-0.10881071 13.346563 0.16985635
-1.1545316 4.493717 -0.44920638
2.251139 -1.2728122 1.1925594
-0.71485645 9.883578 1.0814872
-2.9797556 7.7255564 -1.5617267
-1.9784608 -4.217897 1.1100924
-0.6363567 6.5041566 1.7978743
-1.8960744 -0.93961644 1.1047652
1.5231535 3.6416042 -0.2763238
-1.7269561 -1.6437945 0.9283979
2.0627408 -3.4791632 0.8231918
-2.4860787 9.296844 0.92713684
1.101773 1.9724495 0.09276048
0.060424484 7.0480666 1.0320852
1.6427794 5.1170673 0.8102433
-2.7690146 9.444627 0.35646522
-0.48049745 4.125975 0.10896277
2.699487 -4.187255 0.896177
1.0374715 4.260895 0.53386766
-0.04232098 7.519642 1.108081
-1.6723126 3.091653 1.09074
1.9893903 2.634671 0.60455364
1.5013263 4.071882 1.1331174
0.84392387 4.2656507 1.1907327
0.034765832 4.5932565 1.0812511
-3.1687746 7.351966 -1.5253402
1.2202291 6.7597837 -2.2002387
0.7807964 4.483287 0.80852985
-2.2405312 -0.40602428 1.1242526
-2.1775174 0.6291865 0.51034147
0.0013676878 5.357432 0.48828137
-0.48601627 6.867546 1.8136524
2.4427853 7.483463 0.6193697
2.5859377 -4.600491 -0.65854275
-0.6887607 5.022604 -0.1690091
-0.26830402 9.518849 0.6093159
-1.6992888 -0.73290396 0.19693826
-0.15852916 4.67051 1.8627006
-2.8267798 8.534647 0.8327093
1.5378749 0.40924993 0.16910286
-2.6413443 -4.601583 0.08633091
-2.5361645 -4.2435045 1.0702009
-2.0377467 7.131877 -2.570547
-1.5583698 3.5418086 0.16823144
-0.89982 7.9395185 1.5394186
-0.5421602 12.348578 0.93149227
-1.3905233 3.903985 0.04734609
1.7602668 1.2743168 0.46208435
-2.1527495 7.069545 -1.4773111
-2.830084 9.47688 0.7413248
0.048817873 3.1688669 0.85399467
-3.5912225 7.6788974 0.271526
-0.0027221893 13.136585 0.5371989
-0.5011702 10.510503 0.08149426
1.914174 1.8889211 0.026924804
1.1386267 5.976522 -0.08524396
-1.2817777 4.703611 0.03300131
-1.485304 7.5928936 1.0865024
-1.6765978 9.362014 0.41417265
0.6367359 5.3654394 0.26941267
-3.3994052 7.5710754 -2.908215
0.5797973 8.609125 1.2647182
0.8465822 3.3187785 -0.50293237
-0.9193542 8.582169 0.44524762
0.26791838 13.031165 0.89323705
1.403996 7.429821 0.33166364
-0.15910721 5.364193 1.1627725
0.2521954 7.550063 1.4029275
-0.06892039 4.9262085 0.43777132
-1.4212317 5.073893 1.3322914
-0.884172 5.8661323 1.226514
0.87345755 0.75718415 0.7550541
2.1794918 8.315492 0.99219537
0.27826983 4.539719 -0.187496
0.938112 3.2799037 1.2951247
1.6714371 2.0962384 0.26585594
-1.0136197 5.133302 1.2037271
0.2713993 12.312948 -0.72376907
0.09518692 8.024235 0.61338305
1.9352576 3.056574 0.50880915
-1.1793135 2.0628219 0.9517859
0.49317816 3.1341193 -0.44212222
0.044337552 5.614606 1.4778701
-0.20662157 11.748974 -0.09226753
2.3055634 6.8280983 -0.45840442
1.1399881 5.958843 1.3991221
0.3408006 2.8365297 1.35503
-0.5837681 8.956315 0.46251124
-0.26064742 10.239073 1.3808427
-1.2835144 9.2575 0.5947513
-2.9409223 7.152535 -2.9462557
-0.0614398 8.639395 1.2144905
-1.2148917 10.809761 1.0493487
-1.0774466 5.3435135 0.6675393
1.0082386 9.118771 1.1041747
-0.70176387 10.461699 0.4938327
-0.4715712 4.8177967 0.4103219
1.2382318 2.7039108 0.288859
-1.6196322 4.2211137 0.9406291
-0.16422771 6.5375767 1.3594555
-3.4960277 7.66298 -2.5087488
-1.455845 -0.7219835 0.4991108
1.5989368 5.648871 0.4042999
-2.5743115 7.7538333 -1.5207934
1.5444711 0.14854372 1.315529
1.157178 2.629062 1.2958622
0.22486998 8.621996 1.7139529
2.3762846 8.148233 0.4468919
-1.6950591 4.1553125 -0.1278995
-1.3672726 4.7213335 1.4909506
-1.590176 5.7606773 0.9862636
-1.9611318 7.960128 -2.3705359
1.8424678 3.6755645 0.7074915
0.8021285 2.8140829 0.7699321
-0.7671514 8.34198 0.09531781
-3.0393848 8.113423 -2.4823368
0.67466843 3.1603045 0.98639786
0.4856362 3.3809533 0.75541794
-2.036349 2.6526158 0.23994303
-1.9301798 8.704859 0.2303246
0.03412653 6.3859463 0.719904
1.5604831 1.1804621 0.8241686
2.2729545 9.440233 0.50063986
-2.3548357 8.841664 0.3891376
2.2556212 -0.7481505 0.63790596
-0.4314029 12.86464 -0.19186144
0.41825804 12.559059 -0.485138
-0.42389098 4.5453467 1.0484414
1.2469665 9.278061 1.3946278
-0.80175674 6.2733936 1.2819487
0.23393932 7.1182046 -0.018908855
-4.2500067 6.836315 -1.8439686
-0.2305108 12.109355 0.8769051
-0.2601205 7.243545 1.7425342
1.3680136 7.037578 0.2676994
-0.34160766 7.2625227 1.0583723
2.157229 -2.1214764 1.2535074
-0.32565245 9.712514 1.1036973
1.4273789 4.110412 0.6264332
-1.0044181 4.1162086 0.8712999
1.1157336 9.184485 0.32823706
-0.049218137 11.9774475 -0.86764145
1.8031502 3.935919 0.42420664
-2.9069657 8.631634 0.22055373
-0.6585255 4.587219 1.388143
-0.1807117 2.783194 0.063190915
-1.7862911 5.3795867 0.41321552
0.5188547 4.702489 0.5473249
0.08573308 9.030116 0.15577
0.43796918 12.418119 -0.075176015
-0.53918356 6.067384 -0.48196134
-0.8593433 6.4557 0.78773075
1.4763807 10.577642 0.8891398
0.25830626 7.956242 0.13451053
-0.082137235 5.4127436 1.842685
0.32315966 8.322729 0.6900656
0.54079735 3.921656 1.6532925
-0.9301539 10.438126 0.14441851
-3.870233 7.4569616 -0.5279875
-2.227585 6.428649 -2.8913794
2.1924639 -4.310555 1.4446199
-1.5797613 5.7472777 0.1506422
-0.026030757 12.813457 1.106844
-1.5529033 1.850179 0.070385486
1.263461 4.8768673 0.21701829
-3.594742 7.7551885 0.6656856
2.3812351 9.033578 0.55025697
-1.08964 3.31966 -0.38686952
0.05438185 6.8659678 0.648786
-1.3135558 0.65878683 1.2916397
1.1171391 0.6074963 0.5040611
-0.12659222 11.0708275 -0.20056297
-0.6240297 3.1653876 0.6903597
0.8859436 6.5415354 0.106789686
0.22786736 6.154525 1.0894457
0.7172902 1.3630737 1.1266717
-0.71002406 7.204957 0.8311428
0.3903927 10.555476 1.2735827
1.3824128 5.9944024 0.27572772
-1.6424874 8.138092 0.13100523
-0.6128142 9.329529 0.5039293
-2.0977025 -0.49367768 1.4352219
2.657054 7.368286 -0.06676346
0.50920695 4.211522 -0.17944534
1.625265 1.5986214 0.6827826
1.8730805 -1.1912869 1.0255896
-3.299163 7.947092 -2.2879293
2.180102 -2.6951642 0.77552664
0.2453223 13.517977 0.38555387
1.8108414 9.935993 0.6459544
-2.1864748 6.457117 -1.8246359
-0.011386391 5.142528 0.088766925
-1.8241122 -0.39202783 0.022605084
-0.12576464 4.583447 -0.27345413
1.1347125 10.4586315 0.33033395
-2.05305 7.536446 -2.545107
-1.3282107 7.5706124 0.69411916
-0.5847399 10.162808 -0.02365407
-0.23986432 9.220036 0.296134
-0.46451363 8.188711 0.38647687
-2.0364852 6.37792 -2.2579274
2.3787224 -3.4892063 0.97110134
-0.8877245 6.6299534 0.42534786
-0.89369553 3.7290597 -0.48823836
1.3291681 10.125083 0.88579166
1.278075 8.888965 1.3502351
0.15151174 13.391665 0.7957927
-3.4475284 7.0459313 -2.3973577
0.47842598 8.491962 0.027201084
1.1107637 8.790533 0.34526658
0.95823747 5.5498376 0.36856252
1.0022614 6.7658987 0.5390997
1.2733735 0.2520712 0.46465918
-0.17996383 9.350917 0.99578047
-1.7845316 2.1434164 -0.16347572
-2.2026093 9.837924 0.6089407
-2.0902207 -1.8169546 0.7906344
2.027522 9.181472 0.6894815
-0.15663654 6.2508426 1.0933596
-0.77176124 6.1117644 0.12272321
1.8217053 0.10019656 0.95620793
-0.6249722 1.5185294 0.67248994
0.15731238 7.7343445 -0.31719524
-3.6262012 6.346756 -2.3833022
0.15830527 4.926669 -0.2636688
-2.0315924 3.4021716 0.5225781
1.5460414 -0.32443073 1.3502864
0.6778313 8.4170065 0.9264146
-1.6575695 5.35541 0.037269406
-2.97629 7.716757 -2.080756
-0.559231 6.687247 1.4278343
1.6389238 1.751989 1.0462945
-2.0534074 2.3055415 0.8661334
-2.0759854 0.9298793 1.1817995
-2.1199565 1.9631132 0.9344878
-1.1803184 7.6982875 1.4512079
1.2683696 1.8745642 0.8760201
-1.6417035 -1.124648 1.4719565
1.1295758 9.846483 1.0787069
-1.0190096 1.5677594 0.34788117
-2.6074858 -4.612405 0.86219513
-0.49085984 6.0402803 1.1199316
-0.26511496 2.5095694 0.6975554
-0.20991416 4.495932 1.3748724
-0.7186939 8.771335 0.09757075
2.0263116 -4.610829 1.2834184
-1.4670454 1.2552665 0.87462187
1.2027013 -0.13347308 0.21311024
-2.8585706 7.3123484 -2.5808442
1.9305166 -1.3840734 1.3927606
2.321686 -2.4044042 1.0019729
-1.6716101 3.570683 0.5680981
1.5104872 10.61429 0.49644455
-3.254734 7.285591 -2.6659267
-0.5461125 9.323208 1.2103713
-4.131165 6.7162313 -1.5597789
0.20393024 5.3602486 1.1398494
-0.48513108 4.9489136 0.7811498
1.1032232 8.059208 0.5766175
-2.0767512 9.905136 0.1804038
-2.6474974 -4.3396273 -0.18281929
-2.781419 6.259609 -2.0594337
2.0943646 -4.2651067 0.6587525
-0.84245074 3.052592 -0.31650054
-1.6310936 1.5719953 1.1458638
-0.14044283 12.950075 0.09290291
-1.6397516 -1.1799119 0.8932561
0.027006352 6.168653 1.8356618
-2.2408435 8.920514 0.82495785
1.3638247 9.043807 0.9256586
1.2432106 9.681597 0.75399584
-1.8734783 1.021827 -0.056087997
0.24082103 5.2519646 0.7840755
-0.348156 5.2118883 1.5029082
-1.0051951 10.024249 0.009303782
1.8026139 3.4178119 -0.0520129
0.8793267 4.947471 1.648812
-1.571063 7.25348 0.9837313
-3.7368927 7.5883694 -0.14624152
1.9661633 -1.6112257 1.011849
-0.28143063 10.651353 0.37180573
-0.65568906 3.4512882 -0.48901984
-0.06706337 11.059146 0.8368618
0.29455587 5.7125597 1.0161103
0.6155781 10.207606 1.4359444
0.8347323 8.039231 0.9476046
-0.06032133 12.859083 -0.35935405
-0.08641127 4.1196904 0.43797213
1.2764649 0.72771454 0.17688921
-0.42659947 4.355094 1.6607709
1.6546507 5.239147 0.44465846
0.84153813 4.4537344 -0.18881212
-0.32412305 12.155502 0.0902167
-0.5515799 8.375603 0.72686076
-2.607091 8.532133 0.43176705
0.24276052 10.339995 0.08074274
-0.7708483 12.211181 0.116916396
0.19972657 10.997697 0.09218599
1.8394775 -1.7998141 1.3114135
-1.0760354 8.850566 0.1376163
-1.1822138 7.1723733 0.16620179
-1.1627179 7.9672008 0.80968547
-0.24019516 13.381323 0.81859994
-0.57268256 7.999216 1.7436439
-0.3990983 11.318863 -0.12793286
0.043825496 6.319243 0.14583756
-0.402928 5.3965535 0.7702679
0.18250701 10.238396 1.3692111
0.37982288 10.674029 0.7479574
1.0532789 3.8465972 0.27214512
0.15997916 6.5716896 1.8400993
-0.18064545 10.317245 0.0035508364
-2.3867438 7.9967146 -1.7767619
-0.21559848 6.575779 0.52042943
1.4109876 3.0950053 0.74646884
-0.52201724 8.5816965 0.41982466
-1.619949 6.8481665 0.8654586
-1.0577718 1.8439727 1.2988815
0.020189792 2.7966576 0.62622786
-0.027975343 10.68882 0.055295907
-1.9212279 -1.3589675 1.1267158
-1.9048518 7.069407 -3.063808
-0.23643859 5.7984424 1.8047448
-0.599695 4.1756926 0.9032332
0.71731704 3.5815773 -0.2444281
0.5944768 6.4259834 -2.8057308
-1.831004 10.684204 0.60400194
0.29569063 4.7907996 0.15901159
-1.7843727 -0.57456475 1.1918104
1.7165376 10.261209 1.0343996
-1.7451053 7.7098417 -2.2283456
0.9382419 10.190539 0.95366156
-0.31152192 10.840987 1.0750479
2.1185462 8.517905 0.17278096
0.658196 4.958033 0.21467105
1.3728403 4.530179 0.45175448
0.8497423 4.2190113 0.17975679
0.32057095 7.6060715 0.71542805
-1.9612498 9.096478 0.18771383
2.0093448 9.446519 1.1242204
0.9194143 7.421819 0.2502723
0.95555866 7.936849 -0.16727333
0.115364395 11.249081 0.5590469
-1.7956724 3.471224 0.9455212
-2.8595173 -4.582107 0.45161465
0.8006165 3.5904107 0.55307794
0.27649158 2.8889377 0.28993097
-0.8239222 7.5887413 0.7903066
0.4306308 12.463083 0.6554261
0.97330004 0.04462399 0.7118035
1.6005528 2.8669448 0.4306252
0.15497547 6.07539 -0.55040795
-1.6761733 7.1754255 -2.764882
-1.2205269 8.274022 0.48005354
-2.2628691 -3.6648786 0.754744
-1.5958222 9.338033 0.0191571
0.5224343 3.7785125 0.8396542
-2.914542 6.5564117 -2.654081
-1.3500806 3.0669417 1.2796305
0.880531 3.5524187 0.95252293
-1.4319488 -0.9550179 1.1767641
-0.4105607 9.915708 0.28210294
0.3047637 3.2532303 1.4924512
-0.75227326 7.419452 1.1885073
-2.390644 6.2312365 -2.1247776
1.6267848 -0.41578078 0.39170286
1.4695992 -0.44382074 0.043250304
0.7730399 8.917236 0.15140697
-1.4943973 4.322685 0.1666313
1.1901226 3.4491067 0.56054085
1.8506074 6.730668 -1.1233335
-1.7114718 1.7600089 -0.23953795
-1.4883239 3.0956807 0.053440474
0.28901747 5.9049177 1.4041342
-2.126737 -3.09203 0.9352
1.2543545 2.2135253 -0.36281288
-2.3542893 8.432303 0.6863922
1.2114804 1.1422615 0.12896548
-0.14738293 6.0938454 -0.1972748
2.4453073 7.12306 0.5470489
-0.205641 6.3182416 -0.53211325
0.2734415 4.334019 0.17819463
1.720856 9.280705 0.36529943
-1.621659 6.451718 0.66745335
-0.118664876 5.53547 0.13040692
-1.8368677 3.853187 0.06008231
-0.86177766 13.131074 0.38166025
-0.62398 4.1279383 -0.5553626
0.5686659 6.217167 -0.45081002
-3.0152688 -4.5583854 0.05085369
0.70648855 9.919002 1.1502458
1.0460552 3.167714 0.8800671
-1.8253467 -2.2862778 1.2543491
-1.2202569 3.9863496 1.1435561
1.7360834 8.971996 0.7933991
-2.248191 10.48796 0.52199286
-0.8917655 9.852843 1.4945481
-0.32703933 6.410794 0.16292408
-1.939417 8.3205385 0.35654283
-0.8818407 8.739158 1.5413443
1.1573921 8.662148 1.0099072
-2.39124 7.4807734 -1.8011804
0.4507149 7.8955636 0.4486881
0.30111116 2.1893108 0.50926745
-1.5261787 -1.4003263 1.2146888
-1.0586295 10.270919 0.5505778
0.65641767 9.245636 0.9103336
1.569618 9.593219 1.2583417
-2.2214344 -0.8171778 1.3119025
2.3464134 -4.60842 0.09273163
-0.8218979 12.680178 -0.11035994
-2.8422272 7.0753317 -2.2210617
1.8558056 0.9255875 0.5804047
0.09409486 10.08352 0.6763235
1.1879234 3.0650306 -0.46005008
2.825244 7.1670485 0.66069174
-0.25179723 4.046544 1.5056131
0.0768351 3.9611285 0.8752135
-0.05365067 10.10988 0.29898953
1.2191225 3.9356942 -0.45761567
0.44281235 5.9136305 0.68946224
1.7499915 8.593931 0.5591478
1.4562747 9.447002 0.120380476
0.086698405 5.0309196 1.8579158
-0.5251392 11.84489 0.2964782
0.77742016 6.1467943 -2.3389153
-0.75366026 1.8665146 0.0021156147
1.4534091 3.7573028 0.79488385
-1.6900151 5.7551966 0.55201685
1.793635 3.3293295 0.78348356
0.37598455 8.881339 -0.18269038
2.4022064 8.574496 0.40144333
-0.05577002 8.858306 -0.23244217
-1.7128363 10.141982 0.2116122
1.6593809 2.4411623 0.4485398
-1.5156912 8.33318 1.1574013
-3.9216046 6.440139 -2.1717734
-1.5245004 4.7441955 0.35762334
-0.6605522 12.157351 0.527276
-2.0797744 10.462581 0.85717463
1.0086905 6.373308 0.43154234
2.2321918 -4.6551714 1.5988185
-1.2484012 8.625923 0.74642354
0.9388676 7.943469 0.23068891
0.47488675 4.1535707 0.9283897
1.8119874 2.814898 -0.12798758
1.0310024 2.4537609 0.6642475
-0.33855218 5.596722 1.4886363
0.045595583 4.371574 1.6218189
-1.18044 9.003058 1.4824796
2.2446043 -0.826183 1.0787821
1.8611947 -0.3818275 0.060358074
0.6630205 9.068389 1.2723119
-2.3024747 -3.937952 0.4270185
-0.24993892 3.5055473 -0.3774207
-0.59170914 7.417755 -0.30701926
-3.1034596 6.8821664 -3.234302
-2.3701315 -4.2535815 1.4700719
-0.29010075 3.809958 0.24240594
2.1351488 -3.6976357 1.1498475
-2.2015288 -2.3035827 1.2376051
0.09493248 6.9047914 -0.3904789
-0.45781884 6.288224 1.4532585
0.38295668 12.897203 -0.42153576
1.120233 7.6286144 0.49680203
1.8267214 -0.3806751 1.0478956
0.5422257 9.531898 1.2596462
0.5162208 12.847017 0.66877073
-2.4950202 7.272127 -3.3758137
-1.5361713 -0.6848042 1.4718761
0.36316323 9.882335 1.4932299
1.9285035 2.6954255 0.21775581
0.9623386 9.372869 0.7093396
-2.6986432 7.8902426 -3.0882232
-0.93765014 4.2680306 1.2705182
-0.45062113 3.4862065 -0.027400559
1.6797962 4.7085514 0.7773274
0.7602817 7.2784243 -2.256061
-0.8331324 4.3601995 1.670865
-0.95423305 1.56474 -0.104949035
0.5731702 5.1033177 -0.4979436
-1.2973393 2.9056702 0.3948604
-0.24314621 9.539142 1.4753447
1.1264638 4.110685 -0.08919486
-0.4055893 6.2692213 0.76169586
-2.1043417 0.93796104 0.751003
-4.1873894 7.181939 -1.0481801
-1.4382342 1.3995806 0.5233375
-0.12788863 13.022579 -0.72454923
-1.5522933 6.8373394 0.46430326
-2.7891152 7.9967065 -1.7776114
-0.6404466 3.8582802 -0.18117209
-0.8344355 2.9249368 0.3796104
-1.2608061 5.896604 0.30398175
-1.0582285 3.2489266 1.0304611
-1.7273133 5.375714 0.81230986
1.4251981 2.6289492 0.6998516
-0.5484704 7.7958956 0.48660257
1.4745957 8.247125 0.6838627
2.5072503 7.6543922 0.97941387
-1.8307456 -0.038618498 0.34279194
0.75780815 8.689585 -0.21021275
2.4458761 -3.890264 0.9956106
-2.0080116 1.6288565 1.095691
1.2406453 0.56754714 -0.15802148
0.08211038 11.62897 0.46769398
0.84380245 4.9867153 1.2565866
0.21890737 6.254739 -0.20555377
-1.4866474 6.5439644 -0.06517369
-1.4816446 4.1742797 1.3432549
0.7798399 7.7977476 0.590244
0.8223462 5.7824545 0.6548192
-2.7135262 7.46983 -2.2645814
-2.2673597 -0.39213482 0.7052822
0.42635566 4.290434 1.7531284
-1.0455997 3.865781 -0.14034279
-1.8335849 7.609616 -1.8595488
0.22160004 12.748632 -0.007425952
0.25305054 11.336859 0.21326682
1.4531093 6.782901 0.99594325
2.1219597 8.368187 0.60188246
-1.6226033 6.0915885 0.7387647
2.0388248 -0.9715259 1.3780274
-3.2281961 6.3975716 -2.1297455
-1.5669475 6.1346235 0.34820464
-0.7507507 5.1033926 0.5493263
-1.9250904 7.3122597 -2.2175121
1.1999326 4.606536 0.78752124
-0.09914383 12.441607 1.0343646
1.645011 1.1365354 -0.18711728
-3.457851 7.674428 -2.090723
0.5174201 2.960893 -0.01377825
-0.7794358 5.2923613 0.9197891
0.60116404 1.7494242 1.1069759
2.444065 7.223671 -0.42556512
2.0715945 10.102648 0.8543846
-1.8641118 2.8861017 -0.043219104
1.2421913 6.3371224 0.035567075
-1.4601289 7.2590795 0.39050168
-3.8396313 7.5278387 0.5322427
-1.4695117 8.751405 1.1741278
1.4356931 -0.7240071 1.2558094
-0.6296752 10.486409 0.9412804
0.82808155 5.9062157 -0.34871528
1.8810408 3.5056388 0.34439683
-1.9321254 4.203114 0.61644614
1.7847131 3.7872677 0.04094893
-1.7774827 1.5845206 0.74147326
0.73213464 2.422277 0.9460959
1.7288446 1.6726549 0.3433069
0.4851294 4.9690313 1.7978733
-0.097112775 7.7969627 -0.011732806
-0.8746709 1.2011828 0.049640343
0.47044903 3.553932 -0.5441306
0.2522489 11.757159 -0.27200887
1.4712723 7.8511086 0.5405813
-0.52008235 13.083747 1.0346259
-1.8704782 -0.08285674 0.74427044
0.44332772 2.1181402 0.92030495
0.62589836 6.21939 0.38824376
-0.4283319 11.715213 -0.7147402
-0.3878981 4.270276 -0.26922342
-1.500406 2.1134167 0.7179767
0.08270895 4.5169306 -0.58896524
-1.5559828 2.7130241 1.1791321
0.56132716 5.8023944 0.29869425
1.3170668 7.88764 0.1745055
0.7678215 7.1736493 0.93218106
-0.14484076 8.818296 1.5805078
0.8910993 7.542004 -0.15056235
-0.11749868 12.339131 -0.9548054
-2.2240489 -0.7009076 0.49989134
-0.51363635 5.1957555 1.1507477
-1.748768 6.679559 -2.3646023
-2.4319866 6.5988765 -3.164366
0.88405913 1.3820138 0.3548814
0.19425997 6.760884 1.415893
-3.904551 7.052101 -0.49264687
-2.0928512 -0.08425954 1.3654627
0.15807295 2.9554696 -0.23509681
