-0.26820657 8.366065 -3.7637348
-1.5488667 7.737552 0.16523348
-1.3771071 4.9403067 -0.3340338
-0.4196328 12.44242 0.5000828
1.2727168 3.428009 0.8595357
-2.0240383 2.4821258 -0.052381277
-0.9933686 3.9540443 0.5242961
1.2061722 5.6875935 0.5271767
-1.0532665 9.834735 0.8855238
-1.1487936 8.333807 1.2088224
0.033851326 3.4053593 -0.38583022
-0.846498 13.36702 0.554396
-1.0296468 5.782009 1.584206
0.8125006 1.6443789 -0.24048172
-0.04478683 9.119476 1.2958719
-1.1094495 4.708097 1.2393973
-1.7605243 7.5740757 0.65749407
1.1533023 8.25413 0.9356867
-1.2355063 6.0883555 1.4398048
-1.0272784 4.7003675 -0.15899266
0.6301985 8.180881 1.315362
0.21021831 13.1798935 0.33916366
-0.44648528 4.9961586 0.03947949
-1.1355987 9.826273 1.2584786
-1.3151772 6.526587 0.4157281
0.8125526 9.731953 0.087843604
1.4943589 3.1419764 -0.33686534
-1.3537449 8.2020445 0.86574763
0.36525086 10.646688 0.43085533
0.5351388 1.1188611 0.22795276
-1.5347111 1.2785139 1.3544003
2.3070216 8.411907 1.0200269
-0.049863286 9.598787 -0.06545291
1.0501326 7.1662316 0.54453003
-0.054997966 7.550201 1.5534478
2.0320387 -0.39872938 0.4457711
2.2509978 -1.5273726 0.78674483
1.4069146 2.9141262 -0.00024759822
-2.5295832 9.629557 0.65743667
-1.3778017 10.0244665 0.24786076
-0.89981264 7.336073 1.5606611
-0.85529166 3.8412366 1.1951989
-2.2539015 0.396989 0.33343115
-0.016316924 12.452974 0.6011252
-0.007062838 9.750372 0.39696077
-1.7511362 7.7609067 -2.8999362
-1.5386347 0.34273005 0.95191485
-0.30852598 6.694763 -0.51635045
-0.5769128 2.3632073 -0.08195227
-1.9761574 0.37591755 1.1180838
0.26588827 7.535051 -0.012597683
-0.7025386 10.076683 0.8401522
-1.7588644 1.0028225 1.2138249
-2.564231 7.665935 0.18338965
1.0429413 7.0252695 1.275538
-0.44889086 11.781285 0.7063383
0.67149943 5.257365 1.6863666
-0.48430517 2.8440754 0.40194273
0.41644496 7.1551294 -2.9684749
-0.3896954 2.4740596 0.22100481
1.9499247 1.4278259 0.24588156
0.3259723 1.8615425 0.22544621
2.3622122 9.023017 0.90771574
-0.15354986 4.886583 -0.65976447
1.7081697 2.1140141 0.9750945
-0.32476252 7.3935127 -2.656766
-2.79563 7.6388426 -0.41185457
-1.3879263 7.5425415 0.44356817
-0.7064456 12.049154 -0.32448748
-0.952828 10.621812 0.922941
-1.3822845 -0.3692515 1.1905454
1.8863573 7.439437 -0.52756834
1.5489199 0.60050416 1.1247764
-0.51202977 7.3704147 0.6614588
0.97336906 7.150607 -0.14303836
0.27393115 5.307375 1.6633033
0.61087215 8.121233 0.118265085
-0.010892543 4.74412 1.4414297
-2.122723 0.73037434 0.14057802
-1.0611138 2.2967606 1.3170304
-2.0485926 -0.7374015 0.95090765
-1.0078804 3.575165 0.8966798
-0.2780022 8.07269 0.8318758
-0.36462846 8.503626 1.0727108
-1.6823118 10.576168 1.1183833
-0.18143249 7.504199 -3.3168244
0.3642754 8.956952 0.91946405
2.0769973 -3.5997396 0.776721
0.7044588 3.8213737 1.1473153
0.46984267 6.3532314 0.06231743
-2.0065775 3.5555847 0.15777507
-2.9136093 7.3338156 -0.48868617
-1.8735354 1.295995 0.49971133
0.9547041 8.765831 0.66802925
0.9158889 5.5834975 1.5879769
1.0955352 0.038303748 1.0800799
-1.1615117 3.1253314 0.0365517
-1.3655844 6.7861323 1.1084015
-1.9401003 10.445846 0.49107283
-1.7182683 7.221739 -3.399631
0.06467612 9.559636 1.2738998
-0.69023633 12.817941 -0.36438596
-1.5721649 0.87815017 0.2029619
-1.0139987 6.596753 1.1369098
0.10921446 5.70011 1.6850476
0.9096652 7.252057 1.6180891
2.006321 7.2476463 -0.1844416
1.2205583 -0.07410449 0.58195275
-0.13991873 11.653968 -0.6734803
-0.13168928 3.618418 -0.1059172
-0.23564526 6.1463046 0.40622517
0.2677334 7.23921 0.617745
1.2111745 5.2688875 0.71390164
-2.006989 8.557639 0.72967124
-0.47245666 13.1545725 -0.42056742
-1.4709951 5.5609045 0.33852482
0.8285128 2.9911327 0.077530965
1.4444689 2.7347677 1.1027815
-0.49978262 7.6272955 0.022719664
0.4659165 13.238761 -0.058688235
-0.17337194 8.319226 1.6110679
-1.5731852 3.3939219 1.220332
1.2515848 9.768672 0.18029878
1.9058684 -0.7739906 0.3355811
-0.86744297 6.9540343 0.07014274
-0.5488916 11.387036 0.6410959
-2.0147333 9.417114 0.5050783
-2.601318 8.966902 0.8283
0.25087267 7.300968 -0.38245568
1.0132271 7.838605 1.3152937
-0.33847666 7.434449 0.321667
-0.6813332 4.7971044 1.1030009
0.9912737 5.24959 0.04181595
-1.1117036 2.6402328 0.5701723
-0.91552997 12.674256 0.38108417
-1.117654 4.1775947 -0.45379168
1.172003 3.09356 0.24992655
0.34197295 1.8248534 0.61871225
0.83754516 7.6188726 0.9684332
-2.3664875 7.101964 -1.2706671
2.2835097 -3.9194398 0.35079646
-1.7468202 7.215321 0.7968017
2.6862698 7.394947 0.44208825
-0.83685505 1.2797909 0.89604646
-2.4740639 -4.622289 1.3695118
1.4701806 6.3076806 0.83072656
-1.667409 -0.5854181 0.9454022
-0.29346067 12.559195 0.8730272
0.8526757 2.8625128 1.1400836
-2.7845826 7.1075487 -0.21034837
-1.4555705 8.851066 0.8590901
0.7168729 9.828053 0.48907635
-2.1639745 10.179364 0.35702088
0.09545929 9.39157 1.6308038
-0.77258813 8.419963 1.2104744
-2.5163 -3.906259 0.7451622
-1.5615444 6.4369583 0.98098737
1.5145845 5.5064135 0.81602955
0.040235672 10.881392 0.60133356
-0.93263936 3.5156097 -0.10815734
0.46323186 2.5997488 0.60486406
-1.8661964 -1.4032614 1.5182357
-0.34455496 13.581683 -0.33148715
2.0272298 10.310898 0.57887965
-1.1155913 5.810524 0.4744004
1.0227915 0.75110257 1.1352239
0.1716607 4.8621364 0.70789117
-1.3980718 7.840727 1.2649438
-2.379825 7.140847 -0.85976076
1.4100945 0.9003289 0.10007867
-0.13721552 8.799559 0.4517527
0.2672943 2.4629302 1.1113122
-0.9593345 9.122105 1.3072438
0.012378424 3.981174 0.06950117
-0.7387263 5.346901 -0.49672553
-1.7524456 9.797691 1.3129874
-0.12189877 8.16874 1.2445585
-0.84379137 4.3530197 -0.1724855
0.19648124 12.80911 0.5267235
2.627933 7.189145 0.08860016
-2.2453773 -0.0024493749 0.1273159
0.8548308 8.068558 1.6407887
0.6398377 2.8411176 0.33956176
0.46900672 5.525523 0.56973326
-0.60777617 3.2090726 1.2980468
-0.27749467 8.537184 -3.4268496
-0.65836495 5.862618 1.3999922
0.6032539 6.5289135 0.74113894
-0.26042753 7.8388 0.29828107
-1.9818271 4.645544 0.4747779
2.2301965 7.947193 0.7529162
1.8892859 8.805942 0.77083063
1.2474667 3.7847114 1.2909397
-0.18918514 11.937944 -0.32062605
-1.7819593 9.889723 0.93903303
-0.14510858 5.5538526 0.8034659
1.0580558 1.6097854 0.08751365
-0.36660817 2.8834815 0.79570216
-1.1516986 0.58795255 1.017499
1.4381862 7.0575995 0.6311866
-1.0739757 7.223222 -3.657624
-0.27116063 7.0732737 -2.868875
0.48726824 7.9218483 -3.1723392
1.844215 1.3828931 0.8297549
-0.5194948 3.5388272 0.45095885
-0.6333607 9.124979 -0.17468397
0.56696635 7.0979896 1.6302382
-0.20356114 12.103667 0.64243454
0.14599556 12.451871 0.2791716
0.74488175 5.6844535 1.2791755
-2.0886657 -1.0586778 1.5253245
-0.34417465 6.578695 0.958666
-0.08914234 8.200686 0.11814735
-1.0062953 7.294573 -2.8528562
-0.58124495 8.766151 1.7096078
0.15895385 5.9466457 0.12410263
-0.77883327 9.171656 0.95063573
-1.1711673 8.021337 0.19180681
-1.700411 0.64765656 1.1165488
-1.8502972 4.6377974 0.08929964
0.19020863 8.656393 0.62760085
0.507953 12.852258 -0.09367474
-1.1926677 6.858665 -3.7417233
-0.8033404 5.5100374 -0.09861549
-1.9438764 1.3415523 1.2917138
-1.7504265 2.8616354 0.41398606
-2.727052 8.448269 0.5520202
1.1893408 4.862927 1.3490701
0.4011888 10.318319 0.70699227
1.8040683 10.487282 0.8231395
-2.9693198 7.524746 0.27618486
-0.9994802 4.8544474 0.87327576
0.9972757 10.072624 0.27104285
-1.9907559 -1.0519905 0.7312096
1.2568755 6.771151 0.31155437
1.117238 10.78769 0.7764158
0.7153458 8.21096 0.5173302
1.2697356 3.4126227 1.242945
1.5390437 3.1580098 1.03698
0.01472447 8.365892 0.9228809
-0.37471732 7.509582 -4.257817
-2.2618158 1.8737983 0.47627196
-2.8128371 -4.5440817 -0.71229833
-0.7626001 9.077603 1.6620334
-2.1766713 -2.423028 1.3223099
0.99179685 10.077166 1.4823778
-2.0940666 3.8748322 0.44426128
-0.27306655 12.892816 1.264826
0.94980687 0.4199424 0.87407887
-1.9877853 -3.9348493 0.8335622
1.3938017 4.7200336 -0.18672234
-2.8020039 7.4554076 -0.8391301
-2.1715734 1.5225018 0.30529636
-1.5549749 3.1633353 0.7274941
0.5925916 4.553726 1.7101784
-0.89934736 3.4091165 1.3405945
-2.3026443 0.0043529663 0.8925782
-0.4859407 8.450747 1.4221369
2.1711926 8.641905 0.58821046
0.9050007 5.0792274 -0.41454217
-1.2901955 6.6128993 0.75583637
-0.124964096 13.775765 0.32391265
1.1149001 4.2267857 0.91402966
0.019050002 5.6347704 -0.6265772
-1.618312 2.513194 0.73976743
1.1406034 4.9473033 0.95097744
1.4639907 10.224879 0.72437304
-0.7782868 5.575064 0.38338384
1.0731859 8.767687 1.4167434
-1.559501 8.591019 0.16937144
-0.93514466 8.289628 0.8732274
-0.43411165 2.2091484 0.53790367
-1.1872225 5.563633 0.039737042
0.37224326 2.9781296 0.6082117
-0.6127152 6.401503 0.3892783
1.6027683 8.932627 0.51759833
0.19815338 3.592599 1.4888964
0.59387326 9.986276 0.86215776
-0.10642336 7.3146334 0.6764935
0.08255419 7.928595 0.9266636
-1.941217 -0.6898 1.6170177
-1.199118 0.25415942 0.46456325
0.07285828 11.454009 0.05409723
-0.9969443 3.5383449 0.57011074
1.1042271 7.4495335 -2.042935
-0.37333122 7.7973013 -2.6536908
0.25977373 9.941713 1.1307926
-1.4954398 5.3135495 -0.20531741
1.431868 9.799961 0.5652001
0.48091334 5.9635916 1.0323157
0.6831369 5.3025665 1.3263422
-1.0542783 10.246027 1.1235192
1.2023143 -0.8358988 0.27838758
-2.1496203 -4.589401 0.94137424
-0.29603383 12.997061 0.91502565
-1.0724565 6.793073 -0.24920861
0.069276296 5.186357 -0.645661
0.5799138 1.1294277 0.6594048
0.19547004 8.4502325 -0.18974039
-1.5551996 2.1383488 -0.28373733
1.2860188 4.9060507 0.5495242
0.21280834 6.5606813 0.5255195
0.20925754 9.058204 0.55556667
0.48381954 5.980802 -0.12983271
1.9745628 1.8864762 0.3836266
-1.7204984 7.020912 -3.0592036
1.7736733 1.0778445 1.1145895
0.95536757 7.753024 -2.1457586
0.12941489 4.2034893 1.1282648
0.43955314 9.201023 0.2299878
0.8689952 -0.7510475 0.58364964
0.5078221 13.376939 0.33257523
2.0518553 -3.9867744 1.0772743
-0.7056617 2.4410477 1.171543
0.5868977 7.0211368 1.2486726
2.0040154 7.254655 -0.98449516
-0.47712708 2.447375 0.8956888
-1.0429105 2.7655005 0.9996253
0.9111182 4.8268995 -0.06829372
-0.8785195 8.211262 1.5721925
1.0611833 9.599981 0.45958313
-0.14518641 7.940695 1.6059031
0.09101822 6.934076 -2.7681556
0.43926778 12.750599 0.904337
0.02253806 8.596685 0.15087847
1.06595 3.7976933 0.55859464
1.216281 5.683264 0.046893913
-1.8535976 0.5205149 0.69567597
-1.0757241 7.300781 0.58361197
0.46117455 4.4074974 -0.53965795
-0.46454284 10.041459 1.1599543
-1.8778015 2.4448004 0.51619875
0.90786415 2.3025157 1.2973838
1.1360501 0.18842709 0.030843345
2.0381947 7.5941725 -0.8202648
-2.3083231 0.034532376 0.5154435
-2.2168949 2.6002436 0.5948099
1.2039747 1.4856455 0.83636975
-1.1648486 4.0712695 1.5708346
0.61063266 3.6234517 0.10107702
-0.5401081 3.8507257 -0.5498999
-0.05693566 13.657622 -0.09709173
-0.74607635 3.0494041 -0.019177092
1.6701045 -0.89069074 1.4529969
-2.9824052 7.429633 -0.09339318
-2.0807204 -1.7781006 1.418244
-1.5983855 6.1676555 -0.057948086
-0.0768792 3.8225038 -0.48948136
1.4795632 8.554647 0.28302124
-1.2963111 4.721912 0.6164926
2.0105476 -1.2361407 0.6365453
1.1038322 6.623349 1.3144912
-1.6727815 4.0236754 0.46284142
-1.5087622 8.975456 1.2740564
1.68392 9.722343 0.2757063
-0.54341906 8.106997 1.1099663
0.36401644 9.237555 1.3027426
-0.97161746 8.335556 -3.7736409
0.58936846 3.485228 1.4844376
-1.1509242 9.733842 0.057071626
2.2287388 -2.0070581 0.76611644
0.4007905 2.5215025 0.23525734
-0.6903194 7.5114317 -2.560872
-0.107327566 4.780236 0.033697214
-1.1002946 10.172496 1.5239419
0.053481348 7.6117406 0.32057276
0.5521553 12.71183 0.29605356
0.5947798 7.2484717 0.052830257
1.7169101 3.997499 0.7980942
-0.9809856 8.062651 -3.5093865
1.2271587 2.267909 0.31640533
-0.83365345 13.158047 0.9334139
-1.4093434 10.084119 1.0348585
-0.6420217 7.161348 -2.7498145
-1.4619261 2.3543665 1.3099616
-1.0955113 3.1212711 0.661522
-0.22213483 11.44676 0.8022627
1.222321 6.2303514 1.1297237
-0.30742523 13.296884 -0.062127545
1.0714021 9.417625 0.046034157
0.8803271 1.6102642 1.1114615
0.91387016 5.066398 0.37848243
-1.3942134 2.0042562 1.34949
-0.6441513 3.482093 0.98726666
0.93632734 4.6073794 1.075365
0.72195274 1.7933834 0.7619698
-1.9293408 3.1769044 0.738169
0.83632 5.367303 0.6378444
1.0045156 10.715252 1.1597432
-2.4495463 7.1783447 -0.39782798
-2.2889476 2.2155259 0.6892332
-0.905506 4.4706926 0.96389574
-1.0406797 7.769284 0.5283327
1.1259313 6.7635274 -0.05259662
-1.5956552 4.572529 -0.24258779
0.68314475 9.369189 -0.058240682
1.376778 7.582038 1.1862011
1.5585084 0.7051779 0.41784856
-0.47276562 5.4263067 1.8594939
-1.9748268 -0.58232284 0.58477384
0.05833769 4.591988 0.38501957
0.8696472 8.477809 0.25326777
0.37107587 8.80184 0.26931238
0.20546234 7.0395 1.3740113
-0.23750873 5.984592 0.08881048
-0.3410057 9.541346 0.24522816
1.5158815 7.460423 0.812002
0.4916054 2.7961612 0.98018914
0.3063811 5.1713257 -0.08898468
-0.35037833 8.884431 0.12304786
-1.4636464 2.7695858 0.0019987812
1.0637943 6.48855 0.8651717
-0.9770224 5.584948 0.7542101
-1.2511001 5.9898148 -0.17431998
0.20554563 7.286415 1.7381377
0.4539047 9.134477 1.6731397
1.3241909 8.012562 1.2697029
0.78257656 9.640146 0.8420758
-0.16090482 12.361374 -0.4165705
1.4932511 0.27884164 -0.19533178
-0.98206365 8.490415 -0.19663064
0.39701682 9.6354475 0.32369524
-0.9407489 7.9753594 -2.9862368
-1.7278587 9.7753315 0.5630939
-0.34113148 9.902213 0.7896163
-0.64917135 7.876244 -0.25120747
1.0308561 9.0373125 -0.033737715
-0.18901454 12.660265 0.17475876
-0.2401133 4.8960953 1.1027113
-0.10590649 7.2600727 1.3124537
-0.42277658 4.585246 -0.6398638
-1.932637 -4.5979366 1.3604941
-1.5737388 9.730105 0.20237647
-0.035087783 13.21182 1.1726485
-0.7420825 2.660829 0.11611709
-1.2515776 4.336124 -0.073866464
-1.1340139 10.721005 0.56521
-0.81782085 6.959544 -3.4558759
-1.7466506 3.7498949 -0.20623001
-1.8011733 9.093835 0.7029819
1.4456751 9.883263 0.9805534
-0.7525713 7.065536 0.43005413
-1.446343 2.5391538 0.39688417
0.48740298 3.2650788 0.2396855
0.13852793 2.7830372 0.8970331
0.7361163 6.1900487 0.80093205
-0.9436069 4.124445 0.15210472
-0.96149796 8.957035 0.5997166
-0.81653744 13.148219 -0.10782194
-1.4332201 1.001675 0.55723125
-1.1325467 5.115513 -0.045748815
1.5896066 4.578256 0.14404213
-1.7178603 0.29207847 -0.11532908
-0.34976846 7.749114 -2.2749023
1.3431101 6.308206 0.4213826
-0.40864956 4.8687944 1.4817818
0.42283338 1.4813368 0.76638246
0.0283789 3.4301894 1.1574541
-0.980722 7.668382 -0.2192855
0.47674718 10.281034 1.127816
-0.18658592 6.821173 -3.796864
0.22301102 5.493012 0.2352684
0.74736714 10.938063 0.87564176
1.1162277 2.5011675 -0.43813202
1.9234518 -0.07388554 0.28762975
-1.0239434 0.9632979 0.73711675
-1.6421709 2.937825 -0.3136271
1.6069968 -0.8201114 0.07099708
-2.645705 8.500434 0.19219452
-0.77996016 12.416799 -0.14164092
-0.9492258 7.9931717 1.2045761
0.5255613 7.906406 1.6521027
-1.0376415 2.7728527 -0.24529648
-0.582256 1.8219815 0.5048766
-2.793385 7.8054857 0.01938239
-2.2026463 0.35829306 0.73607177
0.17422347 6.971607 -3.5867085
0.23487903 12.120859 0.614736
0.83578753 9.346439 1.6249928
1.7884927 7.544346 -1.151818
-0.4557908 7.6561856 0.94367164
0.5253069 5.6649213 1.644748
-0.80570203 13.493188 0.18789224
0.031222155 7.2074337 0.27744776
-1.0067708 3.0211022 1.3802342
0.13378167 2.6143484 -0.095307566
1.7265706 1.3960961 -0.0675339
-0.43679896 5.3771772 -0.15980683
-1.3539732 7.875381 -0.16202423
-1.7169746 -1.6872663 1.3033369
-1.1277978 7.262729 -4.0623894
2.1831276 9.2561865 0.25022402
-0.26646802 5.913108 -0.598252
-0.30278295 7.6090374 -2.9741445
0.6596798 3.9451308 0.44526598
1.2254125 5.31203 0.34003103
2.1448474 9.751352 0.96654135
1.9746724 -1.8801306 1.0322214
0.20254289 6.8950934 1.738241
0.5032911 8.741522 1.6528921
1.4093442 2.745487 -0.37925643
2.3141441 -2.7986386 0.9540545
-1.7981972 1.6930802 0.321714
-1.5685437 7.6638675 -3.2396657
-1.2628492 7.2180433 1.4475125
-1.4832865 0.30702043 1.37629
0.019056195 12.270869 1.0140667
-0.60148996 7.1626787 -3.76574
2.10366 9.645409 0.30159736
-1.1357663 7.207027 1.0353019
-0.018667901 12.023063 0.32285637
-1.4281921 0.27104592 0.16109377
-0.4961148 7.533696 -3.530877
2.3499389 7.159905 -0.3163693
1.165386 1.7750108 -0.32736793
-2.2803457 8.249393 0.48297212
-1.3308449 8.770139 0.475461
0.16485761 2.4366555 0.7055509
0.60678756 6.0640244 1.3646562
-1.0131018 3.7154849 1.548432
0.2604944 8.34008 1.3565363
-1.058386 1.8605739 0.70283043
1.9368616 0.6808289 0.36773545
0.91563284 6.852527 1.612146
2.519387 8.642568 0.8320615
-1.3339854 9.269842 1.4036486
0.77070975 10.665699 0.565705
-1.3704859 7.072964 0.77407086
-0.7629369 8.716916 0.8895745
-1.7282969 3.2713437 0.3944633
-1.2131735 6.9451146 0.4430961
2.6401293 -4.030509 0.26762936
0.34245485 6.871524 -0.42424276
2.2260394 -1.099768 0.86811244
-2.6529717 -4.2692733 0.6733581
-0.28271964 8.646661 0.75335264
-0.84946615 3.1408474 0.9819728
-2.0853126 -3.5107048 1.2239326
-1.8008236 8.82378 1.0210917
-0.8527912 2.6822467 1.3713151
2.0963283 -3.0559416 1.1485499
0.17693657 3.6239803 0.118922
0.7579666 2.4940286 -0.4169359
1.5619127 1.4134346 1.1448356
0.4840118 9.390593 0.645613
-0.34082875 4.5117807 0.36755496
-1.7043381 4.9274 1.1036823
-1.3621789 1.0314654 1.2269266
2.7059612 -4.624955 -0.012455921
-0.27873746 3.2073078 0.5394643
0.232519 3.834244 -0.25183737
0.3538642 8.022772 -3.521372
-1.8506606 -0.33934647 1.6043975
0.29415402 8.329531 0.30436954
-1.1653833 4.9771404 0.33614722
0.5202313 12.480556 0.53581756
-2.65408 8.840254 0.4910475
0.82506835 1.4079161 0.71909404
1.3136165 0.7125516 0.8221634
0.7825612 10.470889 1.4043095
2.0233161 -0.09956868 0.72172666
-0.68692875 7.504787 -2.204496
-0.5871399 4.127259 0.46590242
1.9318421 2.2789721 0.3167673
-1.7768534 10.206878 1.2467233
0.2145949 6.1578593 0.43880266
0.71292716 5.4878664 -0.43555132
0.8523591 4.9228187 0.7225762
-0.8600246 12.748955 0.96477544
0.78611517 6.753325 1.0015274
-0.33975098 9.108715 1.6163225
-0.6141224 6.7866955 -2.580723
-0.9683662 4.3520045 0.59714144
1.4700304 -1.4446566 1.1287163
0.028870197 6.5840163 0.96757627
1.2652403 3.764091 -0.048927996
-1.3698075 9.637634 0.71657676
-1.4642107 6.952159 -3.4822626
-0.5634002 12.518343 0.14607263
-1.8399869 0.6768867 -0.1681135
-0.6767265 8.834691 1.287341
0.118880175 3.5811064 0.80594563
0.3930869 8.121374 1.0495124
-0.7383451 8.198158 -3.2333148
-0.16504355 7.3298826 -0.4267815
0.34730786 3.6492648 0.43736342
-0.83200324 7.3818164 0.022850094
1.8061595 9.8881035 1.1914585
0.4319954 7.458438 0.33382916
-0.40626308 12.193513 -0.14538671
-1.4126816 2.8412726 0.82176286
-0.9778466 6.882396 -2.5986009
0.46527624 7.219535 -3.4173694
0.73568183 4.7021174 -0.56708395
1.878502 -0.6835424 1.044159
-1.1360735 3.713281 0.19321221
-1.1296712 5.3733087 -0.32775128
-1.4227588 7.2931147 -3.077674
-0.31156728 3.9015183 0.68750066
-0.41063872 13.707031 0.08532196
0.6335966 9.008723 0.58623236
-1.9667134 -0.1945388 0.4533139
0.905009 5.9516525 1.0549866
-0.78688294 6.577575 -3.273336
0.7958708 -0.29888904 0.50852853
1.4358753 8.982607 0.17539693
-1.3744601 3.7448626 0.4596216
0.027605683 12.773184 0.87551016
-0.13773881 7.0725226 -3.258151
-0.93835014 13.094795 0.25055102
0.38286316 12.145013 0.2277024
-1.280544 -0.14666434 0.8752186
0.66149664 5.2198124 -0.15984935
-2.3249993 -3.826049 1.0971692
0.82908225 3.9891198 0.7920509
1.0633464 5.219205 1.445504
1.402205 9.999071 1.377532
-1.3731008 2.3238313 0.050225515
-2.0037959 1.4534818 0.007746868
2.0229235 -1.5644258 1.3780398
0.6857979 0.39043835 0.5242683
0.20064633 11.9250965 -0.47098497
2.3799884 -3.6402159 0.6022093
1.4418311 -0.15286529 -0.09093751
-0.2898757 8.065463 -0.286263
1.6582409 -0.038735338 0.6156081
-1.1731447 2.0567932 -0.2561975
0.14671564 6.2293296 1.2942241
-1.5115322 5.7054133 -0.1574139
-0.9045549 9.442746 -0.064681634
-0.7515843 1.6374816 0.20182037
-0.62102205 8.500769 -3.599438
0.76664215 1.241799 -0.12591974
1.5280634 5.0063157 0.10682897
-1.1891385 1.9548932 0.16473813
0.17008872 4.574508 1.8006085
1.3067782 7.6370068 -1.8438592
1.5663989 7.5698576 -1.4833157
1.6872947 7.279336 -0.84732664
0.20360303 4.115113 -0.6110647
1.0782765 5.486304 -0.262011
-0.72786194 10.806479 0.4650098
1.0915868 3.1572924 -0.18553795
-0.7125141 6.5555487 -0.3863937
-0.42935637 7.519571 -3.9150887
-0.5706581 2.0711846 0.18279079
-1.3151783 6.1793094 0.59586966
1.7122599 0.66944635 -0.03918565
1.1443973 1.9602216 1.2903862
-0.5951629 8.378521 1.7697397
-1.0938386 5.1403875 1.6104491
-1.2898926 2.4583979 0.94005525
-1.5614458 7.336589 0.08177853
-1.6975759 4.976841 -0.064037226
0.61154723 2.187547 0.16251242
-1.6405659 8.483821 0.9338862
1.195637 3.0429025 1.1397104
2.4680216 -4.609803 0.38512152
-0.49372956 9.528778 -0.10282209
0.41728956 9.590909 1.0767416
1.8907503 0.31203374 1.2551295
2.1570604 8.730459 1.0743012
-1.6687988 6.5203686 0.2295695
-0.19831564 11.605722 0.3910335
-0.4709727 6.61648 -3.5714734
-2.7860117 8.108452 0.32139084
-0.84336287 1.7019227 0.9483018
-0.12103984 6.5816994 -0.19926298
-0.9017035 4.7613482 0.5324977
-0.07015507 13.358809 -0.41961953
-1.6450428 -0.23497786 0.73130393
-0.058144864 6.7136407 -3.065331
-0.8393392 9.533227 1.3097119
-0.88002896 2.044407 0.4296336
-1.2112677 0.95150024 7.022175E-05
-0.81347877 7.351821 -3.3690603
-1.4001296 0.7840367 0.8755259
2.4680164 8.07716 0.3323791
1.5437698 -0.6917505 0.41854882
0.78901124 5.999054 1.6593564
-0.23983675 11.503767 -0.22920455
-0.58262753 5.916363 -0.20746313
-1.8416895 7.9400673 0.5431031
-0.8359412 4.826851 0.12478038
-1.5308719 6.072363 1.1718981
1.3988293 7.1456294 1.0859778
-2.274774 1.4043071 1.0402374
-0.5400094 6.824672 -3.9519475
-0.5349297 13.262089 0.24284454
0.29574403 7.3368526 -2.6463926
1.0753 -0.49939588 0.35912204
1.2183304 5.542494 1.2539015
0.7193965 3.277166 -0.16806234
-1.4749707 8.386596 0.54029256
-2.494308 8.102808 0.12036728
0.10794459 3.2804272 0.4314714
-1.5167229 9.248249 0.96738863
1.278506 9.050332 0.68537647
0.5231126 6.541015 -0.3780055
1.2091666 10.392413 1.3305459
-1.29694 -0.11002058 0.43874428
-2.3278372 -4.5979877 0.47277763
-1.0134146 6.520079 1.5402983
1.3432274 2.4571493 -0.04650257
-0.6141873 4.734253 -0.2899659
1.3995786 0.6756479 -0.26090246
0.34526193 11.024277 0.9725703
1.4736773 1.5639925 -0.28201085
1.4338784 -1.1032157 0.90452564
2.2686837 -4.288873 0.35219198
1.7428635 0.0014456302 -0.017859023
0.5935369 4.538307 0.08005851
-0.09513463 7.8078475 -4.0959244
-0.49910077 8.072333 0.08290691
0.19846325 8.12512 1.719696
-0.4896637 3.8422246 1.065389
-0.97485363 2.3272288 0.18429135
1.7029328 0.8799968 0.7720967
0.55342495 7.4895563 1.6471198
1.6654588 4.810616 0.4176095
1.3275441 2.2870412 1.1225148
-0.13612802 7.3961353 -0.053257603
-1.0681002 7.5429287 -3.1642544
-2.6898165 -4.185576 0.29926988
1.6995232 2.8745465 0.79970753
-2.0276713 -4.258132 1.5736436
-0.008903126 7.438564 -4.0722313
-1.2938473 -0.6600247 0.919275
-0.88043845 3.3529088 0.26617596
-1.6302633 -0.4021597 0.35490102
0.65441704 6.677692 1.3437756
-1.9085486 5.0408554 0.30267087
-0.7352756 7.9105535 -2.6558943
0.8118145 2.4955556 0.29895923
-1.2878203 4.3464594 1.0801418
-0.2816483 5.042588 -0.31629345
-0.7015439 12.051596 0.08069842
1.5230225 3.2751203 0.34235182
-1.3462721 7.4786997 -0.17826955
-0.8396518 1.2469355 0.44136
-1.1359276 5.387405 0.38490862
-0.9938085 6.8676167 0.81258345
2.5843277 7.594132 0.19545116
-0.31970498 5.367312 -0.59512305
0.06380056 9.427851 0.58942276
-0.64701205 7.091708 -2.344554
-0.39338923 12.772874 -0.5899112
-1.4388112 1.577222 0.14017573
-1.125146 2.66913 0.13873592
-0.59477395 5.6942706 -0.5262925
-1.9770184 7.4726315 -2.6826692
2.0766306 -2.6063285 1.2389508
-1.6404269 4.5034156 1.223374
-2.0685916 1.91126 0.11914014
-0.6350595 12.437859 -0.5094061
-0.643251 5.792006 1.7895527
-0.7802244 9.580287 0.30165628
-0.61454123 5.7303867 0.7394569
-0.052384276 6.766462 0.23480313
-1.1292282 9.439703 1.0656528
-1.7016602 2.5335398 -0.2690664
1.9007765 -2.194046 0.80939347
1.8165438 -2.2812471 1.1449568
-1.3556287 7.7525506 -2.5687265
0.76713663 3.9646006 -0.20619977
-0.9708405 6.2231784 0.3845996
0.6190765 7.103422 -0.30953375
-0.71510327 9.835015 0.017247703
-0.53548336 9.843469 1.5442189
0.44401515 3.9706445 0.098522194
-0.90210867 6.179673 -0.27254453
0.9345565 5.2932153 1.0324519
0.78572124 10.2316675 0.6292937
0.8704788 6.9453435 0.20201941
0.787638 0.059013117 0.37202165
0.054285508 8.108837 -3.8135436
0.9776765 3.5908668 -0.21352206
-0.9892441 8.098842 -0.1833604
0.46186414 2.3446944 -0.2304521
-0.63377696 11.187026 0.35882813
-1.5638374 5.3653507 1.1676618
-0.61241037 8.324732 -0.21959957
0.37958476 9.619383 -0.039053146
-2.3274167 -0.34184763 0.2709936
-0.14109477 4.3706956 0.028237993
-0.11782768 8.452545 -3.073619
1.4122683 -0.10268032 0.92325664
1.7966944 0.34501746 0.17141826
-0.097981155 3.8034842 1.1349789
2.0776436 0.9737105 0.8997127
2.1014264 1.09542 0.5327747
1.455973 10.111105 0.31918883
-0.3380329 5.70745 0.42910808
-0.5176617 8.733325 -0.2272394
-0.6929634 3.7737012 0.7096262
-0.5624464 3.1532445 -0.39284664
-1.394402 6.456087 1.3454915
2.340971 7.751375 0.0075314394
-0.8304381 12.50319 0.6855768
-0.6258646 13.468877 0.8670522
-0.26590607 4.186067 -0.58792466
0.39577916 2.7296212 -0.3734195
1.0754658 2.5096707 0.93943226
1.2591604 5.0867033 -0.21345016
3.0582492 -4.5792756 -0.20488627
-0.62779135 3.6598063 1.4598699
-1.2311609 3.6080022 1.1581242
1.1423682 4.1585574 1.3509752
-0.6981624 9.734548 0.6242165
0.32620955 6.9449353 0.2978649
0.58516127 8.603276 0.5653909
-1.3807248 3.7555988 1.4696652
-0.83438253 2.0733078 1.1164603
0.39382797 7.269525 0.97860825
1.0482575 9.399216 1.1487054
0.6283128 5.591649 0.9397686
-0.96066636 2.3719847 -0.21066256
-0.6603971 9.464127 1.6486797
1.4636313 4.788598 1.0378058
0.13892046 6.510695 -0.52638775
1.5665653 9.225165 1.2509
0.9487803 3.573887 1.3760935
-1.0001823 7.225074 -2.3907897
-2.2490394 -0.6882782 0.17692558
-2.2638826 -1.4183922 1.3291326
-0.32154807 6.4931326 1.764457
0.8155595 6.7284403 -0.24445815
1.773736 3.0793078 0.011948817
-1.9371765 3.8524094 0.80813015
1.0033379 8.288095 1.3291004
-1.3915488 10.413945 1.3436261
-2.0679107 -3.0797975 1.2564051
2.282994 -1.7643609 1.1171275
-2.9893913 -4.5833025 -0.3495234
0.74659336 4.22118 1.5778278
-1.9314139 2.8047605 0.8338229
1.9574032 2.216103 0.71224374
-0.03559868 9.670346 0.90552133
0.46050557 6.3973694 1.1490855
0.8372489 8.503642 1.6426984
-1.9678771 4.2831035 0.27395406
-1.072213 8.719492 1.2057008
0.5290355 3.9663873 -0.58405924
1.4737396 4.343808 -0.13134098
-0.91209674 6.0380635 0.7849302
0.61914545 9.027534 -0.13126068
-0.5186885 3.1703176 0.20156562
1.7259108 0.49795306 0.77134424
1.3031431 1.8611257 0.4257303
-0.27519482 8.133055 -4.0425506
-0.60968894 4.534793 0.6563057
0.35392043 10.047872 0.4528997
1.6421424 4.161382 0.122750536
0.9987721 7.538171 -0.11980771
1.1454049 1.350796 -0.30800718
0.23508152 11.746623 0.32596987
-0.39717507 8.449085 -2.7741265
-1.7153666 10.289142 0.8303024
0.5484472 10.01705 0.11819175
2.2083733 9.359569 0.986119
2.0397186 -0.032519743 1.1159219
1.3112309 1.3199649 0.019053716
2.528327 8.594717 0.4573741
-1.7755983 8.166378 0.8004925
-0.17157811 11.213926 0.404291
-0.104937516 9.836088 1.5123184
-1.2355552 8.05066 1.5405948
-0.16965084 5.9431424 1.4048156
-2.3375454 9.563217 0.30708224
1.0672556 2.8541512 0.49698237
1.2916785 4.0886674 0.23040937
1.068229 1.2620254 1.1077789
0.047971245 7.7971544 -3.1066124
0.1898921 4.847871 1.0918204
-0.2712952 3.1660995 -0.17651641
0.056978673 8.333143 -3.4793582
-0.21749917 3.4135566 0.19548956
-0.141794 13.415943 0.32578164
-1.2470467 4.561497 -0.45545194
2.0087132 -1.1007972 1.4112824
-0.790783 9.926709 1.2200401
-0.35569704 8.160796 -2.455798
-1.9860934 -4.228364 1.1247491
-0.68457854 6.506189 1.786886
-1.86728 -0.84228027 1.2468979
1.4018643 3.5718763 -0.36465
-1.7119077 -1.4855955 0.9551598
2.1564162 -3.1221282 0.78546536
-2.362478 9.207392 1.1577247
0.9002201 1.9345616 0.069021516
0.05522995 7.0643716 0.98792356
1.6019671 5.076451 0.77218807
-2.5192614 9.233763 0.39876497
-0.50569755 4.179933 0.09045915
2.602738 -4.201872 0.92016506
0.9886968 4.2320313 0.47753102
0.016172722 7.5119915 1.0248797
-1.7310667 3.0848217 1.1034403
1.8986804 2.6098757 0.58197457
1.457707 4.0351295 1.0943818
0.79362285 4.2381954 1.1387881
-0.025708623 4.535986 1.0541577
-0.69101536 7.9382753 -2.2872453
0.8622688 7.6869917 -2.5021205
0.7446201 4.4525213 0.7495077
-2.325102 -0.3299656 1.1259613
-2.2523127 0.7309401 0.5349381
-0.10344425 5.3708897 0.43673685
-0.49864775 6.852209 1.8322515
2.2020402 7.7839694 0.38158938
2.5771618 -4.5945926 -0.67782646
-0.74333704 5.093836 -0.20653367
-0.3328298 9.524843 0.65837854
-1.8595105 -0.73481363 0.262237
-0.22875072 4.6148853 1.8175098
-2.712976 8.582142 0.9036273
1.3773358 0.47931397 0.15752389
-2.6394305 -4.599805 0.13524477
-2.5166492 -4.2163324 1.074232
-0.18079229 7.2393794 -3.6561348
-1.6306237 3.6027794 0.18340069
-0.9026718 7.7873187 1.5645264
-0.60585326 12.429482 1.0249611
-1.4756539 3.9601846 0.050443254
1.5409473 1.266415 0.2706547
-0.0041263173 7.1961827 -2.4937515
-2.5931926 9.299526 0.8225081
-0.011309899 3.1663487 0.8114534
-2.5868506 7.222432 0.06740359
0.010071717 13.187318 0.6842721
-0.4922557 10.539727 0.23824899
1.8262929 1.8039771 0.020080918
1.105139 6.014979 -0.07497503
-1.3720096 4.759207 0.032136884
-1.519099 7.4769063 1.160722
-1.5997176 9.381709 0.5139007
0.5921599 5.348624 0.22471671
-1.2775381 8.275116 -3.4794438
0.6749353 8.590873 1.287417
0.70395243 3.337356 -0.55381846
-0.8880323 8.557903 0.50286186
0.33292103 13.073541 0.9767922
1.3668001 7.419306 0.42744848
-0.29093114 5.3332157 1.1046255
0.28298232 7.451159 1.3508923
-0.15784842 4.956815 0.39589804
-1.4099118 5.0910764 1.3837426
-1.0040399 5.828572 1.150373
0.81866336 0.75839424 0.7378076
2.0046244 8.353836 0.8616526
0.21606356 4.543056 -0.23526339
0.8830936 3.259625 1.2442136
1.5806012 2.0515585 0.18861148
-1.088074 5.116787 1.1786616
0.22273342 12.301798 -0.5689879
0.04577617 8.010114 0.508019
1.862424 3.0345817 0.45234796
-1.2561301 2.089782 0.9669738
0.34490436 3.1549082 -0.49833763
-0.02434334 5.5542035 1.3137125
-0.20218983 11.808341 0.057914823
2.3232198 7.404009 -0.6396457
1.1186373 5.8872585 1.3852577
0.2571597 2.8184228 1.307832
-0.55942255 8.896871 0.5297093
-0.31632346 10.222159 1.4517834
-1.2920196 9.190954 0.66697836
-1.0977103 7.677071 -3.6173625
-0.011719679 8.594811 1.2990748
-1.2718612 10.770263 1.1960232
-1.1493409 5.1717997 0.7114862
1.1045206 9.009929 1.0549849
-0.70281726 10.44886 0.65400815
-0.5286419 4.881212 0.39731964
1.1557347 2.6580577 0.20884925
-1.675977 4.1805677 0.9257181
-0.18355465 6.474967 1.3666804
-1.1803159 8.340184 -3.0963545
-1.5898997 -0.7271519 0.58272225
1.5499008 5.622407 0.37016565
-0.0057268436 7.9608603 -2.4630013
1.4858463 0.20749547 1.3167198
1.0819172 2.6268005 1.2729774
0.18731695 8.557329 1.70535
2.16891 8.12133 0.16821793
-1.7722613 4.212527 -0.10704335
-1.4632516 4.7564497 1.4055319
-1.6769152 5.701097 0.96483535
0.21959986 7.665203 -3.3913038
1.8046747 3.641244 0.6627112
0.79175025 2.7985146 0.7335695
-0.80910665 8.357701 0.13302085
-0.5314042 8.561557 -3.1590252
0.64449847 3.1569397 0.910393
0.4268671 3.3578205 0.69371474
-2.098056 2.7131708 0.25291413
-1.713565 8.732603 0.562859
-0.0663191 6.281394 0.72311425
1.4808991 1.2381564 0.7647107
2.3408635 9.454665 0.63890696
-2.044365 8.732324 0.31116733
2.1331866 -0.770403 0.67768013
-0.47737023 12.938368 -0.025814053
0.3623205 12.611916 -0.36420378
-0.45911166 4.517367 1.0095177
1.1936688 9.201204 1.4484831
-0.90010685 6.212495 1.2624085
0.21652642 7.101745 -0.06557294
-2.3669004 7.3831124 -1.8664906
-0.35013387 12.107929 0.98806787
-0.20740156 7.190078 1.6531315
1.2118798 7.192316 0.16908252
-0.36847755 7.265437 1.0408012
2.0446644 -2.04599 1.3336697
-0.3795298 9.665147 1.1991698
1.3619906 4.0651064 0.6234946
-0.99568504 4.025475 0.887241
1.1017044 9.174921 0.36765677
-0.130243 12.034127 -0.68574226
1.7146968 3.8950505 0.38281658
-2.3189404 8.475266 0.15367264
-0.7396071 4.5708146 1.3915358
-0.32775876 2.7833118 -0.035738826
-1.8373023 5.4128304 0.46768215
0.47507152 4.6914215 0.48706537
0.066752434 9.0079365 0.14801666
0.42814273 12.50302 0.031748593
-0.61694545 6.137841 -0.5092434
-0.93022287 6.4314823 0.7472612
1.4102685 10.584379 1.0403461
0.24422102 7.976582 0.06890377
-0.124876745 5.3731666 1.7349386
0.33775726 8.248859 0.68763
0.46836036 3.868886 1.5976436
-0.88993716 10.46249 0.2908898
-2.5152984 7.471631 -0.65813637
-0.8245357 6.6757507 -3.6928635
2.151364 -4.2933908 1.4202901
-1.7262717 5.7963467 0.13818616
0.11669844 12.80858 1.2050297
-1.5739424 1.9398692 0.06983765
1.213081 4.855956 0.18259469
-2.6892712 7.3849144 0.43686593
2.4415202 9.00757 0.5402634
-1.171171 3.4440835 -0.40355685
0.038826164 6.8902335 0.63202727
-1.3590678 0.65433896 1.3416954
1.1121508 0.6091297 0.5287421
-0.145454 11.127812 -0.020554248
-0.66550183 3.205365 0.649665
0.8606023 6.5044656 0.13401914
0.053341962 5.9454584 0.96244544
0.5973194 1.3567477 1.0725446
-0.7464507 7.143293 0.81974226
0.33267498 10.522497 1.3825319
1.4152354 5.9889565 0.19117679
-1.5569518 8.145771 0.20281233
-0.60371006 9.270002 0.6025047
-2.157592 -0.21435705 1.4521959
2.533347 7.479194 -0.22322805
0.44251248 4.2068205 -0.2085203
1.5063773 1.7164899 0.7765155
1.8171642 -1.0705557 1.0513991
-0.80792576 8.490853 -2.9266915
2.216678 -2.462198 0.79023445
0.20031855 13.60046 0.5386399
1.7754787 9.970915 0.6941063
-0.293107 6.692803 -2.7789788
-0.0798247 5.191572 0.050861467
-1.9604843 -0.3904852 0.077149615
-0.19079368 4.6225977 -0.31846976
1.1623836 10.422576 0.4464051
-0.076330185 7.606461 -3.6853437
-1.3444059 7.5101357 0.8139004
-0.5687381 10.197603 0.09678745
-0.22679949 9.187679 0.37187737
-0.39476943 8.141399 0.46999472
-0.39464888 6.556529 -3.1783373
2.3418381 -3.356109 0.9538953
-0.9298306 6.6678576 0.40900657
-0.9697781 3.81223 -0.4888828
1.2490003 10.163585 1.0548398
1.4282465 8.849625 1.2842616
0.1424843 13.464924 0.9211124
-1.3471469 7.6700573 -2.9270666
0.52692336 8.527714 0.08670847
1.1726904 8.780503 0.3860219
0.89748347 5.6007643 0.3048182
0.90011704 6.7903166 0.5733797
1.1190174 0.2598596 0.44748446
-0.27702242 9.332827 1.027154
-1.8947964 2.1551058 -0.11923196
-2.1406672 9.727414 0.74096787
-2.0687432 -1.5390842 0.7807847
2.0759425 9.108811 0.6134141
-0.24368337 6.2108617 1.0902743
-0.62552476 6.139528 0.107874654
1.7152429 0.1413817 0.94824356
-0.68677825 1.525651 0.6370317
0.123856395 7.6810527 -0.35319337
-1.8895662 7.103829 -2.7673192
0.117869295 4.939272 -0.32053122
-2.104413 3.4615917 0.51845086
1.4307127 -0.19740604 1.3181894
0.747348 8.384862 0.8919065
-1.7669764 5.3970895 0.060130283
-0.5481782 8.102102 -2.912964
-0.59518933 6.6396165 1.412959
1.5009464 1.8783168 1.1002591
-2.053241 2.4451454 0.90110403
-2.166411 1.0572268 1.1932448
-2.0796142 2.0723884 0.9860783
-1.2489511 7.604088 1.5209937
1.1325133 1.8592055 0.88039666
-1.6794299 -1.0132978 1.5484629
1.0465288 9.812417 1.1374047
-1.085195 1.6178641 0.37446815
-2.611391 -4.6105857 0.8959612
-0.6077196 6.0179057 1.0491825
-0.281596 2.5547304 0.5860234
-0.3277365 4.515922 1.3624346
-0.7334844 8.790607 0.15680218
2.0241225 -4.621215 1.3348403
-1.4624355 1.231214 0.90719056
1.1074921 -0.1613125 0.20251323
-0.78347075 7.7704396 -3.360094
1.6738445 -1.3196796 1.416114
2.2670352 -2.2438977 1.0988013
-1.7252955 3.6229317 0.5871422
1.4616861 10.633622 0.6636137
-1.2019228 7.905747 -3.2431517
-0.5449754 9.246784 1.2930509
-2.3148942 7.120417 -1.6507664
0.098613776 5.2188473 1.0412492
-0.55007327 4.937349 0.7771581
1.0862223 8.015315 0.5906016
-2.019146 9.802613 0.27267113
-2.6478777 -4.3378615 -0.15877861
-1.080428 6.7142835 -2.9593353
2.1144884 -4.0546985 0.6764266
-0.9231902 3.1549888 -0.34118652
-1.6777227 1.5357847 1.1167276
-0.17162804 13.039587 0.2570593
-1.6418164 -1.0477382 0.9492343
-0.09821827 6.1604795 1.6685855
-2.1988864 8.802802 0.99312866
1.5509267 8.957035 0.9446311
1.1918302 9.59741 0.8246465
-1.9458053 1.0571626 -0.037647642
0.18592373 5.2879863 0.66362846
-0.46913335 5.2411327 1.4970733
-0.99826473 10.105932 0.14213425
1.6883322 3.4332418 -0.10790572
0.82763815 4.8948364 1.589327
-1.5370193 7.1201053 1.1307163
-2.5895672 7.4699345 -0.19100711
1.9119867 -1.4548175 1.0406665
-0.31415948 10.637692 0.54917735
-0.74266404 3.492808 -0.4954693
-0.09127429 11.081052 0.9643828
0.22612931 5.6003847 0.9280512
0.5578609 10.159886 1.5330043
0.84251696 8.019056 0.9867993
-0.12615132 12.915036 -0.2155483
-0.13315976 4.166158 0.39046255
1.0673524 0.746191 0.2151126
-0.495881 4.3102283 1.6483463
1.5979056 5.241731 0.43996772
0.79876924 4.438948 -0.24021865
-0.26614454 12.264029 0.18277538
-0.5739575 8.356015 0.77033716
-2.304969 8.373847 0.87722725
0.23794729 10.34811 0.2116373
-0.8043366 12.298127 0.3455243
0.1665074 11.038093 0.2503152
1.6959238 -1.7597384 1.2921034
-1.0988538 8.800697 0.18638213
-1.1742755 7.2122517 0.1775292
-1.1675223 7.878653 0.89733243
-0.2291894 13.46159 0.97708076
-0.58286715 7.9911346 1.7950195
-0.43245614 11.373513 0.09121349
0.052342474 6.3710127 0.17562169
-0.48988467 5.3605776 0.6974364
0.123712465 10.195779 1.4529686
0.3261931 10.661734 0.8745851
0.9479213 3.8300664 0.18168809
0.15749143 6.4710712 1.7155435
-0.16917104 10.326551 0.13052118
0.26682675 7.989045 -2.7801516
-0.24154942 6.5808783 0.54034984
1.3875418 3.1178105 0.6570816
-0.4942214 8.525111 0.41649064
-1.6887448 6.820052 0.9035795
-1.0746765 1.8347425 1.2600783
-0.014165042 2.853748 0.5471011
-0.047348645 10.715029 0.2122375
-1.9538255 -1.2635309 1.1410584
-0.30849704 7.118917 -4.1046357
-0.280612 5.790824 1.7883211
-0.62679386 4.1682396 0.85675067
0.57316333 3.6842015 -0.27956298
0.62242496 7.5040464 -3.1441255
-1.9167498 10.627921 0.79805255
0.26271075 4.7689176 0.08633402
-1.8639666 -0.38616115 1.2306948
1.6504006 10.268819 1.1533629
0.512576 7.591671 -3.5356607
0.8685894 10.191954 1.0901582
-0.33731997 10.8672905 1.213699
1.9889879 8.4958935 0.20255752
0.6111489 4.943693 0.16803154
1.329128 4.4709673 0.41590822
0.7826464 4.213699 0.13472083
0.24168283 7.634136 0.6743724
-1.7486428 9.018008 0.2949621
1.9046167 9.481716 1.1783756
0.90552247 7.434779 0.26193908
0.90458095 7.9112897 -0.18569951
0.12644371 11.281067 0.7157679
-1.858879 3.4908574 0.9610107
-2.867518 -4.5784736 0.48517078
0.7431754 3.55134 0.5088314
0.25299245 2.895721 0.2139009
-0.8730913 7.5515404 0.8340131
0.3254607 12.428261 0.86977804
0.89100605 0.06888736 0.7538501
1.5191531 2.8460164 0.38278824
0.103378646 6.079381 -0.5785472
0.03288413 7.0925994 -3.9273705
-1.1338899 8.19729 0.5536953
-2.139043 -3.5957227 0.8053368
-1.3732756 9.400877 0.0031305167
0.48680073 3.749928 0.79050136
-1.1347315 7.1027474 -3.2468817
-1.4178436 2.9692554 1.2622018
0.85317636 3.5296133 0.90088934
-1.4490981 -0.8355479 1.2493055
-0.42366853 9.882504 0.36172327
0.26185212 3.2285013 1.448015
-0.75719047 7.309379 1.1714854
-0.70585775 6.608859 -2.882112
1.5341704 -0.29598716 0.34165958
1.3613191 -0.5008764 0.04877974
0.7799549 8.898294 0.23770589
-1.5620878 4.3807993 0.1801134
1.1315053 3.4046988 0.5063097
1.5775359 7.279517 -1.254863
-1.8196095 1.7693646 -0.19128537
-1.5725464 3.149104 0.061706446
0.26610032 5.829002 1.3267254
-2.0835822 -2.807895 0.9549352
1.2236493 2.1476123 -0.39858288
-2.4846117 8.464649 1.1531583
1.0495342 1.1318289 0.13162184
-0.16570328 6.143787 -0.22788727
2.209663 7.406574 0.15527546
-0.25407743 6.3272123 -0.56432503
0.24326636 4.3323774 0.1492212
1.8015584 9.286709 0.3233853
-1.668529 6.4538627 0.6290477
-0.111027785 5.603237 0.08304237
-1.9076742 3.9206815 0.12102581
-0.9399285 12.971741 0.6269243
-0.7187101 4.197237 -0.55911034
0.5086571 6.186038 -0.48048884
-3.0178902 -4.5595603 0.0718183
0.6480775 9.88832 1.250049
1.0065295 3.1476293 0.8169199
-1.8738896 -2.1399865 1.3489096
-1.2430755 3.9759324 1.1539652
1.7725704 9.242772 0.799289
-2.2852225 10.401409 0.6774017
-0.94222337 9.808162 1.6227072
-0.31759438 6.448308 0.123623
-1.88299 8.356363 0.4371102
-0.9054548 8.648251 1.5997043
1.0811951 8.615226 1.0392236
0.019649168 7.659367 -2.7335958
0.40667346 7.893868 0.39994937
0.2174746 2.190487 0.4350729
-1.5405868 -1.2781668 1.2807038
-1.0550808 10.244676 0.69618005
0.6435892 9.243552 0.9816669
1.4852619 9.600477 1.3066473
-2.2344005 -0.6377696 1.381179
2.3372283 -4.5976086 0.042695228
-0.8488385 12.775074 0.025186615
-0.69088674 7.6082544 -2.9755392
1.7588484 1.1270038 0.50135094
0.045991592 10.059509 0.76104677
1.1068375 2.946711 -0.5083464
2.4575233 7.1156473 0.41123706
-0.34010988 3.9578516 1.4661225
0.06273977 3.9854674 0.7929724
-0.062916815 10.096284 0.38564536
1.1514823 3.8974533 -0.4985608
0.3912717 5.908008 0.67086047
1.7448604 8.475251 0.55328524
1.4340618 9.373726 0.16945617
0.034950566 4.9650974 1.7570808
-0.51205206 11.980485 0.38393053
0.6586474 7.4030724 -2.706049
-0.8390186 1.9996923 -0.07123458
1.4487619 3.6514897 0.63870037
-1.726105 5.790239 0.56172013
1.7553551 3.3006306 0.72597855
0.33047077 8.790598 -0.17636544
2.3222828 8.512149 0.17275822
-0.08493463 8.834376 -0.18302143
-1.7401626 10.143993 0.34477234
1.5763595 2.4571657 0.26743355
-1.4810956 8.184622 1.1925461
-2.0769348 7.1678705 -2.4842205
-1.5869112 4.7878766 0.36305022
-0.63483435 12.153545 0.7145373
-2.1246653 10.356725 1.0308338
0.97111434 6.4139247 0.47996327
2.3809247 -4.6534686 1.5759082
-1.1817081 8.595835 0.8183805
0.95811045 8.008197 0.21514845
0.45846674 4.127014 0.8501845
1.705356 2.6976678 -0.1426691
0.97131175 2.4491107 0.6102223
-0.4134927 5.5840907 1.4565692
-0.05398919 4.314586 1.5360569
-1.1846405 8.921337 1.5835218
2.212786 -0.82481587 1.1366574
1.745221 -0.4295371 0.053930644
0.7366321 9.04943 1.3109154
-2.2805533 -3.900556 0.44964454
-0.36770675 3.5191462 -0.40894258
-0.6195284 7.419291 -0.33194464
-1.4159814 7.609565 -3.8695517
-2.3729546 -4.199421 1.4561332
-0.34903198 3.828939 0.21323179
2.1203644 -3.526765 1.1469948
-2.2604601 -2.0600498 1.2038968
-0.008351077 6.948203 -0.4397668
-0.49964833 6.227775 1.4466807
0.24744076 13.017214 -0.3903773
1.0819772 7.6145434 0.59468955
1.7305052 -0.2946536 1.0392042
0.72191364 9.508487 1.2971715
0.5594274 12.97037 0.60731244
-0.7956858 7.588184 -4.2272315
-1.5711783 -0.5764636 1.501143
0.29997972 9.828902 1.5510765
1.8601408 2.689555 0.19673285
0.9414207 9.250786 0.7345573
-0.62957877 8.264478 -3.9665747
-0.9841137 4.2484865 1.2957609
-0.5602371 3.507658 -0.06139024
1.6435581 4.6723695 0.7241322
0.442908 8.332682 -2.4507794
-0.9118105 4.3799763 1.6841472
-1.0479486 1.6470087 -0.10496061
0.5110669 5.091404 -0.5465312
-1.3494961 2.9476664 0.39063987
-0.2729651 9.474622 1.5272058
1.1011128 4.0925274 -0.11582375
-0.51991427 6.263248 0.72673213
-2.1943364 1.0920465 0.72579885
-2.510427 7.454136 -1.1025348
-1.5327448 1.4423575 0.57004476
-0.1145896 13.032933 -0.59012
-1.6138978 6.8383603 0.5227896
-0.015808314 8.269827 -2.7199926
-0.7250123 3.9128966 -0.18073718
-0.8971463 2.9495895 0.36680725
-1.366927 5.933685 0.24115986
-1.2240489 3.2082071 1.0309286
-1.7835491 5.317587 0.8371985
1.4043835 2.5361557 0.6058092
-0.5883554 7.765914 0.5045681
1.4560887 8.2033415 0.7084925
2.5747252 7.8008356 0.5859506
-1.9065268 0.17935517 0.35233954
0.76441205 8.67529 -0.17928931
2.409136 -3.8180919 0.99593836
-2.0532036 1.6914546 1.1167413
1.0825748 0.5597114 -0.14085148
0.049847197 11.726596 0.67303324
0.7908888 4.9583225 1.1849895
0.19791296 6.262072 -0.20425384
-1.5065327 6.5981708 -0.085666336
-1.5189637 4.112143 1.324048
0.777989 7.7763014 0.4562773
0.78789645 5.8287034 0.62114507
-0.4284749 7.835998 -3.2578623
-2.350294 -0.3473538 0.6806065
0.34793454 4.2236814 1.7004534
-1.1306924 3.9194734 -0.13993563
0.3378497 7.588803 -2.9569523
0.1801162 12.85433 0.10111145
0.25166783 11.382371 0.39599517
1.4132812 6.7101226 1.0061572
2.0686116 8.2128525 0.5013646
-1.658613 6.0946417 0.7790726
1.9862757 -0.6947135 1.4260134
-1.303759 7.0192966 -2.764282
-1.683607 6.1584964 0.3638877
-0.7975379 5.1679444 0.53927606
0.15372829 7.3180394 -3.3296003
1.1572566 4.5855384 0.74199194
-0.20836821 12.499433 1.2203645
1.5243529 1.0815951 -0.22535543
-1.0368446 8.299882 -2.7329364
0.4468233 3.0032227 -0.10192958
-0.8264764 5.2474275 0.9217558
0.50667125 1.7658294 1.0666255
2.207501 7.6303253 -0.36644238
2.019191 10.15227 0.9564536
-1.922996 2.8882291 -0.066205725
1.2254782 6.3829618 0.041064706
-1.5691619 7.2299533 0.4435203
-2.90377 7.150802 0.21394096
-1.4496655 8.6081915 1.2464693
1.3772454 -0.63845444 1.3345654
-0.68150735 10.363135 1.1169037
0.8131543 5.8772345 -0.35372376
1.8083047 3.4752665 0.2885979
-1.9861073 4.237318 0.6410898
1.6835635 3.777053 -0.0019945572
-1.8443853 1.6893518 0.7474813
0.65551543 2.44347 0.92849183
1.6598598 1.6152502 0.45696557
0.43157592 4.8943453 1.7113218
-0.10874811 7.8022046 -0.030195665
-0.9560939 1.2861034 0.060934313
0.35927925 3.6126463 -0.5980232
0.25468934 11.84051 -0.061883695
1.4865887 7.806264 0.5621594
-0.49935693 13.265834 1.1555573
-1.9180815 0.090182096 0.78016096
0.36312106 2.1237693 0.8765898
0.60649985 6.2119484 0.4307267
-0.46231493 11.750416 -0.5213453
-0.4587953 4.3132963 -0.28567803
-1.6006572 2.100269 0.7378478
0.045008022 4.506746 -0.63918805
-1.6350337 2.6924531 1.1628478
0.511814 5.813816 0.27097017
1.2439848 7.764253 0.17149717
0.77909553 7.148126 0.897722
-0.20526563 8.715538 1.6148164
0.6173698 7.5054297 -0.2767868
-0.17522189 12.391884 -0.7776382
-2.3233607 -0.71668917 0.5374766
-0.5760984 5.1412883 1.1526288
-0.086278684 6.7041106 -3.4450955
-0.9042278 6.956396 -3.9762142
0.80556375 1.4061368 0.29786333
0.19307971 6.652708 1.359314
-2.6842992 7.089122 -0.67359
-2.1432185 0.04040105 1.1945436
0.06299754 2.9690876 -0.27140075
-0.623207 4.1871696 1.2607443
0.7708978 1.0277842 1.0810354
2.1398778 -4.3051963 0.9802355
1.9587969 -2.6796973 0.90873176
0.23196626 3.1224718 1.0611404
1.1107247 3.3629212 -0.52622557
-0.19374794 8.43831 -0.23301812
-0.92734516 2.3324804 0.7960835
-2.2335467 1.4825103 0.6568688
0.3489216 3.4152226 -0.18733238
-0.5216731 11.110525 0.96461684
-2.1427114 -2.0103934 0.83786803
0.83264035 0.43242982 0.17005143
0.18395151 8.20288 -3.1279206
-0.7254979 7.0021653 -0.30777153
-1.3710377 7.052306 -0.15336703
0.93859184 2.344088 -0.052822098
0.3740097 8.552387 0.99467146
-1.0852869 7.571734 1.1881135
-1.922986 -0.03831079 -0.034622468
-1.2439281 5.463959 1.4687532
-0.22094339 9.215323 -0.11159127
1.770352 -0.48226303 0.684935
-0.4473127 8.968384 0.9355384
-1.4240024 5.744905 1.2947981
1.5364858 -0.70136553 1.0000981
2.083304 -0.3802743 1.2823522
-0.4976519 6.7567005 -0.11290845
-2.1827908 8.9762125 0.6142346
0.9491859 2.0680294 0.46021485
-2.0185118 10.087566 0.6993021
-1.2397685 6.2898216 0.1313736
0.054607667 12.556209 -0.14977452
-0.0881193 8.379391 0.51256317
0.09836123 3.2323523 0.019979334
1.0835804 10.418538 0.8324504
2.0072455 7.116786 -0.5822364
1.2640591 1.6177208 1.2306464
1.2233076 -0.38517183 1.0999675
-1.168094 6.413097 -0.20457315
-1.3823255 3.8946717 0.7865651
1.2738649 -0.7712829 0.6603008
-2.1645093 2.2725596 0.28799635
-1.7804682 0.515386 0.25832638
-0.52918434 7.0525827 1.4269276
-0.8649255 6.1514874 1.6594374
-1.4636699 7.911583 -3.5503056
1.9628407 -1.7083819 0.6895868
-2.28238 -1.2123736 0.9055361
1.5859945 7.863678 0.94256073
-0.4442202 5.3109612 0.28561485
0.34515953 5.418359 -0.52915823
1.0006819 1.6940258 0.51917505
-0.2819815 3.5250533 0.8130619
0.21889806 6.6764455 -0.060969528
1.538222 2.3554583 -0.31606263
0.5222767 8.271584 -0.23080935
0.34936965 6.779322 1.0059905
0.0041224724 5.3851066 -0.27981216
0.19864577 7.8822207 1.3453116
-1.2872081 6.8407264 1.4581766
-0.832198 7.4532633 -3.831364
-1.9570476 9.1594 1.1120421
1.3423411 0.29447296 0.86155427
1.8303549 1.0241554 0.1244103
-0.32971796 3.9371808 -0.19259879
0.99633235 -0.36918023 0.80060536
-1.4261457 1.7241827 -0.23840402
-2.4842465 7.8584933 0.5143339
-0.9736158 10.571675 1.3942262
-2.158536 9.155061 0.2531797
-2.419909 9.631042 1.0448099
0.21977764 2.2274034 0.030623218
-0.46951044 7.4571476 1.4126018
-1.729614 2.517127 0.12916377
-0.9676036 5.7610297 -0.3280775
-1.9466993 -2.6745996 1.2878838
-0.28510904 5.9419723 0.7366832
0.61473864 0.74541414 0.3657626
-2.2109754 9.305326 0.8080362
0.41098976 7.7188234 -2.5001526
-2.5037231 7.3713074 -1.4739987
0.66400135 7.8328266 -2.8001428
