1.1010002 3.881935 1.0717021
2.2011147 9.858212 0.5306252
-1.8318366 7.587373 -1.7112658
0.57349986 5.0879292 0.6264595
-1.4465798 10.853134 0.7032054
-0.48152438 2.795825 -0.23276016
0.8646128 6.332878 1.1300107
-0.96710485 9.496129 0.62762254
1.1825082 6.074586 0.74998057
-1.3324 7.8576474 -3.0227222
-2.1639447 10.063826 1.0125413
1.6701701 2.025372 0.6556462
-2.218372 7.633192 -3.2590046
-1.474126 10.546818 0.42211646
2.2114646 -0.4566567 0.91123253
0.26843593 4.0433083 0.5277364
-2.0636618 -3.9381537 1.4241045
1.1755335 9.683203 1.4465072
0.46721822 5.825445 -0.48806348
0.9066291 7.656866 1.6233345
1.1484163 4.493335 0.08213957
-0.9384708 4.8930373 -0.46047735
-2.387684 7.7993946 -3.5570822
-3.2530966 6.7509246 -3.0295978
0.26700154 9.252102 -0.18274672
-1.4746704 10.023981 1.2936889
-0.8532834 6.897039 1.6416837
1.4735888 5.353855 0.050709613
0.5589764 4.816452 -0.19278699
-1.1907568 6.7132983 0.14383017
2.1410804 0.31195486 0.97026557
0.19883385 4.3908668 0.7580925
-1.3296684 1.5989357 1.3463577
-1.256861 4.4126472 1.5340958
2.2344625 -3.9776561 1.393432
-1.2423781 4.1056657 0.389136
1.174068 2.7588992 0.92813087
-2.7991018 8.132972 -2.9572713
-0.66244376 7.7840395 1.2640668
1.401039 5.8351583 1.0465568
0.829499 5.6838574 0.010713222
-0.69062454 3.7301083 0.23521058
-1.0950378 11.01113 0.79268026
-0.5120225 8.142738 1.4248959
1.5394312 4.4133067 0.9107709
-0.7745404 5.4575324 1.3665375
-0.6976754 2.682655 0.7096734
-0.52740395 12.79433 0.6657437
1.2848318 8.460445 1.3517618
-2.4217246 10.062572 0.36066902
-0.74653757 10.087155 0.35550666
0.8245928 2.8973458 -0.37992978
0.91541183 3.9161654 1.5109814
-2.2475383 1.6689029 0.7882668
-0.5859731 4.664078 1.8298233
-0.63241583 7.2257705 1.7935798
-2.1196983 1.0033162 0.31264943
-0.5667724 6.4677434 1.0854701
-0.49733955 4.5580883 0.051204007
0.46228656 10.997462 0.51814646
-0.40904695 13.159198 0.52268153
2.1605446 8.862374 0.19025697
-0.5139279 4.946267 -0.5658489
-1.267571 9.735469 1.4318389
1.11909 7.3905697 0.8732977
2.0003529 0.6598804 1.1042355
-2.6880136 8.762569 0.5112628
-0.10077742 9.111753 0.657403
0.795573 9.817013 1.5543962
-1.8203425 0.7454107 0.44054112
1.7434388 2.4803402 0.8860937
1.3621066 2.2175238 0.78077656
0.76781845 2.668062 -0.009931438
1.3755887 7.063493 -1.6515088
-1.2907715 4.799827 1.0823455
-1.2400961 -0.098620534 1.1426464
0.8688159 2.0558267 0.9307981
-1.9794325 0.3133304 -0.08662432
-0.2465527 5.7018156 -0.20935075
-1.661268 7.3353024 -2.2117872
-1.3257031 8.273409 -0.17730503
-1.8731576 1.9636217 0.5975775
0.76683915 1.8005315 0.33223838
2.4087768 8.158005 0.9303013
1.3935097 2.15941 0.0048885606
1.6221486 2.009574 -0.2610488
-2.9997067 7.589231 -2.0770645
-0.30595073 8.944721 1.220258
0.6465968 10.806667 1.1401672
2.782694 -4.614152 0.66672176
-0.7289898 2.4220192 0.41757962
1.155687 -0.7307031 0.97471446
-0.8213508 8.157994 0.44840047
-0.5905161 11.59704 0.14040612
0.98491544 3.429784 0.21194547
0.8717374 3.74825 -0.5348306
-2.7589052 7.631645 -3.4456913
1.3998697 0.9618293 0.5201771
0.17309426 10.830174 1.1362073
0.5598574 4.3292685 0.5031511
1.4175844 9.328536 0.6156809
-1.9057136 0.64186144 1.3511636
-1.1863873 2.1960077 0.47741476
-0.5925189 9.211873 0.13381132
-2.3061707 -4.592082 -0.066030756
-2.1072347 -4.6421447 1.7019536
-1.7454743 -0.09541429 1.1147951
-0.77003497 4.532604 -0.5496813
-0.88268554 8.946544 -0.22009759
1.1020874 5.616797 0.92539257
1.060121 6.2703614 1.4711055
0.8085667 6.125375 0.06808202
-2.4999816 -4.57797 -0.46469164
-1.6543218 9.5218725 1.1906174
-2.4408486 10.154804 0.730967
-1.3984447 3.5216339 0.82119805
-0.1409791 6.9809017 -0.04776635
-0.38536772 7.685448 1.7706026
-3.759233 6.678746 -2.1947527
-1.8679023 7.9142017 -2.7204297
-1.9923909 7.918552 -2.327856
-1.4265641 9.72703 1.0075029
0.62406486 6.648195 0.38776323
-0.6986717 4.0076027 1.641324
2.4720523 -4.235283 -0.07441224
1.2584231 8.238084 0.059876405
0.2020734 8.136283 -0.20941165
-0.30790246 5.03085 1.8651574
-1.2441655 1.2466296 -0.15522681
-2.0906065 -3.3887126 0.91128105
-1.7003882 0.8150744 0.78746283
-0.5152768 5.6078763 1.121064
-1.3823347 0.5673722 -0.039212234
0.8232324 6.44269 1.6820099
1.5011082 8.216554 0.36505106
0.17540392 9.029463 1.6785803
1.5643898 0.00093578995 0.26752275
2.0762866 0.27399716 0.5618346
0.69135815 7.054976 0.50252646
-1.8028529 3.2905855 -0.12567118
-0.9688113 9.215721 0.25607613
0.70482314 7.4269466 0.6483715
0.9399792 8.330631 -0.11469563
0.49769545 9.55088 1.6258918
0.5772537 4.8455625 0.98457307
1.6756029 0.18961282 0.55113155
2.316466 -4.6132016 0.56526893
0.5588095 8.354365 1.6476827
-1.0240197 9.4200115 1.555964
-1.1560197 4.5141497 0.33221325
1.5270536 4.030496 -0.21944924
0.873459 0.8481498 0.019254163
1.9328068 9.514131 0.63461596
-2.4914532 7.427294 -3.6107738
0.28548518 8.841764 1.3395128
-0.20587893 4.31047 0.76197356
-0.06500823 10.687524 0.82150066
-0.30868527 12.558321 -0.35235134
-1.2323492 2.851875 -0.35464305
-2.0548005 7.2253036 -1.6277872
-1.8242681 9.590741 0.8029863
0.78036875 8.818447 0.94232
2.4148543 -4.586026 -0.3384306
-0.55639756 13.503859 -0.24571688
-1.155484 2.420247 -0.31146812
-1.4353305 7.94717 0.4950347
-0.25961524 9.924515 -0.076855086
1.0160271 5.985473 0.35313573
1.1200619 4.707253 -0.37435815
-0.92788005 7.2227774 -0.24992083
0.31496784 4.5981927 1.4391867
-0.3561342 13.570613 0.4897359
-2.5014212 8.791916 0.8701453
-0.13861598 7.6818213 0.70788443
-1.1196637 0.23735268 0.9459375
0.090679914 9.433692 0.14777406
-1.9601585 -0.49700516 0.8662982
-1.4166546 4.090063 -0.35519922
3.0460398 -4.59078 -0.56138605
-1.3420763 5.1597166 0.9247504
2.5346804 -4.643257 1.4294875
-2.2212682 -2.6171293 0.9501087
-0.75406337 12.730846 0.93226606
2.580967 -4.5984054 1.0113397
-0.7025205 5.0467343 1.8228087
-0.40918794 12.10859 -0.7535163
0.6227542 2.143587 1.2773361
-0.73355883 7.968882 0.8181183
-3.0255446 6.990546 -3.3036408
0.888144 8.99214 1.6031971
-0.6200936 5.9377675 0.4843807
-0.8691714 5.39989 1.7280511
1.5314734 8.300505 1.0642825
-1.4111583 5.135377 0.18553562
1.0584284 7.4078217 1.267093
1.8556719 -1.0355397 0.65395
-1.8890753 6.868389 -1.8167673
-2.625151 6.410625 -2.6652071
-2.1478744 9.626073 1.033093
0.08458363 2.547773 0.36182833
0.54743177 5.2295003 1.013444
1.413657 3.44492 0.1067604
1.739585 4.3611126 0.5609858
-0.98137486 4.7126713 1.7027354
0.03085365 5.1815405 1.4791735
-1.9529262 9.509589 0.15484247
-1.389577 9.090683 0.29304022
-0.23515521 7.625663 -0.34068444
0.4337449 4.5297713 1.0497774
2.1612222 -4.590861 0.9319082
-1.977446 7.804741 -3.5465603
0.03122444 8.927191 0.97758883
-0.4943077 7.181484 0.05466453
0.51587415 6.7742443 1.6404997
1.1767614 10.001375 0.57013154
-0.5484846 2.6643288 1.0854087
-2.1459503 -4.272937 0.6377817
-1.1960706 7.609497 0.2040618
2.499272 -4.236333 1.2475362
0.14399548 5.7978797 -0.22566321
-1.5224041 -0.049815573 0.11095422
-3.174899 6.9085927 -2.5070133
-2.321136 -4.2490745 0.16802087
0.417827 12.173367 -0.3299071
1.1404829 6.962396 0.8814187
-0.22565855 4.160815 1.1148678
1.466638 1.7575191 0.076723136
0.28468773 5.111149 0.37863922
-0.369537 3.452481 1.2831247
-1.4417874 0.51508 0.45702228
2.1163266 1.5292602 0.6281927
2.083028 9.133714 1.137861
-1.591235 7.8868284 0.8845871
-0.7038133 10.238759 1.4301089
2.854749 -4.2863994 0.05370935
0.15536112 9.976979 -0.00710651
-1.5173813 0.9443973 -0.22628373
-0.13641904 5.112923 0.8153141
2.8659105 -4.5489755 -0.88767093
-2.270085 6.3811064 -2.7269595
-0.3513494 10.272862 0.47384906
-0.6993208 7.571402 1.7045424
-1.8956684 7.819218 -3.0981946
1.9567219 1.8009048 0.8644234
-1.2740282 8.988417 0.8963351
-2.7745256 7.297654 -2.3008249
-3.1553533 7.5762825 -2.4797623
0.6925511 2.5673327 1.3560236
-1.1612409 8.430966 0.15003014
0.49912047 4.222132 1.3652924
-0.49975577 11.697925 -0.2712244
0.9752937 1.0138996 0.43754923
1.4126592 -1.082568 1.1483403
0.018222755 12.677041 -0.6889427
-2.2268224 7.905425 -2.9537838
-0.4861051 10.735694 0.7617122
-0.16740224 12.774655 0.4381412
-3.2387538 7.5407906 -2.8982022
0.55297464 7.8421717 -0.19417435
0.9250685 4.6470966 0.41960177
0.9655783 1.8994949 1.3152896
-0.9205315 0.8746589 0.3651032
2.1956367 0.6551947 0.7399224
2.5175505 7.337488 0.7369945
-2.0042531 3.124387 0.21047318
1.1410012 2.8289247 -0.070278205
-1.4077345 10.072135 0.5419256
1.6130612 -1.7760803 0.99037975
0.30191883 7.7165256 1.0545671
-0.7716898 10.915467 1.0834267
-0.30860284 3.183926 1.0492047
-1.2497581 -0.42404988 0.582382
1.3944356 6.7160773 0.6244802
-1.1943134 7.5085645 -2.894571
1.673237 9.54262 0.890052
0.39934266 13.318757 -0.31694365
1.4059837 5.2721677 1.1419777
-1.2784144 10.501079 0.796906
-3.139146 8.24832 0.71329844
-1.820855 4.982529 0.6571582
-0.9175085 7.0338492 1.2381352
0.67983484 6.9810886 -2.1945076
-0.09619569 2.9990687 0.3148018
-0.17764287 4.7006016 0.75129056
1.1493893 8.3724785 0.41351497
-1.7563955 6.863251 -2.81412
-1.8171259 -2.0431838 0.96298563
-0.54818434 12.831915 0.27019894
-1.1475862 1.3878243 1.1040392
-2.399931 6.805454 -2.5799437
-0.73899037 5.0144506 1.4605169
1.2410991 0.42240897 1.2390506
1.9156704 10.0518465 0.23714298
2.6173987 -3.9069452 0.63046634
1.4482706 3.7194982 0.39666173
-0.9197981 5.777381 0.17813556
1.3054276 1.3628998 0.4862979
1.4983149 -0.49832296 0.84986985
-0.14144678 5.803193 1.1539123
1.5706784 5.96671 0.6661614
1.8557127 8.869347 0.386942
-1.5094043 -0.15857928 1.4072319
0.64760166 2.1883829 0.56931543
0.312056 4.7956486 -0.588004
-0.58808213 6.71191 0.7041096
-1.6246333 0.42807677 1.5078688
1.8170274 -1.5147152 0.7227856
0.674747 7.4150324 1.3020685
-0.80245304 7.8626122 0.14546461
2.988671 -4.60097 0.24406573
-1.0729117 9.863081 0.40159136
-1.647314 2.0937753 0.3031568
-0.0747578 10.545225 1.269982
0.58875227 1.9269049 -0.057696175
-1.3783998 5.587014 0.74208236
-0.3032127 7.0779843 0.3961747
0.45367166 1.4615822 0.4304056
0.77868867 10.5361595 0.850331
-1.3691345 1.6985264 0.896255
0.8829791 2.0616667 -0.25221944
-0.7886289 6.501816 0.06840474
2.753747 -4.3704524 -0.39926767
0.15410729 4.0095754 1.5446209
-0.3150014 6.9896 0.7709341
0.043918416 12.114871 -0.15822059
0.6093729 1.530717 0.066369005
-0.4745301 6.290013 -0.1390573
-1.6105543 1.20755 0.16387442
0.62812275 13.014873 0.3363681
0.44949734 5.0345383 1.4244285
1.2183579 0.9803084 -0.21800037
0.6997409 10.361541 0.23151343
-0.045576517 13.604055 0.6055797
-1.7161973 2.3825967 0.94174373
-1.4127551 1.794416 0.4833609
0.8059227 9.3729515 0.27487466
-1.1226225 6.270604 1.0529705
-2.0392785 7.1197977 -2.6401472
-3.7641895 6.952826 -1.0040051
0.40772033 5.4791055 1.377455
-1.1038172 0.57036763 0.26319692
-1.9042442 7.105303 -3.5873234
-0.50356525 6.766333 0.30059737
0.8928799 4.204263 -0.48171303
-0.24418312 7.815561 1.3106449
1.1718771 8.650788 -0.0024918609
0.9264635 6.3497367 -0.25030136
1.0575558 4.5669565 1.5506449
-1.2368068 4.3976617 0.7272797
0.81987435 3.2025814 0.56747156
0.12665643 5.7451234 0.50333196
0.06507823 4.1770234 -0.22770625
0.38318858 6.3104053 0.77495146
0.60604453 3.0966566 1.3946798
-1.1946572 3.3554142 1.4621758
-1.2752064 3.4543362 -0.049206007
1.1733633 7.8165174 0.9106118
-0.030772628 3.6915207 0.51910377
-2.7659247 7.896594 -1.9915274
0.22573204 7.762457 1.7852958
0.4672385 5.5964966 -0.10793353
0.58375657 7.7997775 1.2886261
0.24102196 13.55532 0.027997967
-1.2589293 7.0299716 -2.3918023
1.8342338 -0.11928735 1.4162302
-0.4751189 6.132743 1.8372753
-1.1106411 5.50196 1.0719428
-1.6084175 1.3201735 -0.23876621
-1.264426 9.507922 0.29562983
1.5793202 8.698091 1.1361395
-3.4654846 8.040302 0.56939566
-0.7752936 11.07493 0.6216241
0.6794159 4.636189 1.3685278
-2.0430195 0.63327074 0.91908777
-0.52693117 5.6327205 0.16305032
-1.2009932 5.882139 0.9424269
2.30469 -1.518089 0.9222732
-0.63453066 1.9251553 0.80692166
-0.21416843 6.890064 1.2608746
-0.69877696 5.2158523 0.18831591
-2.205032 8.072416 -2.6268773
-0.71043265 7.467559 0.39537305
-1.2281753 2.6354365 1.3370377
-2.9377637 6.9106574 -2.1282215
-0.62456006 9.555244 0.88708794
0.16971979 10.376871 0.9722513
-1.7822363 4.6070957 0.84448946
-0.22573209 7.186749 -0.3876442
0.0666766 10.447567 0.5070048
-2.0084152 6.7490764 -2.485787
-1.47686 3.2748806 -0.3397167
-1.7152998 1.9661767 1.036151
-2.299312 -0.71959186 0.931226
-1.0610894 1.0034871 1.1774681
0.22061689 9.316199 0.8913105
-0.38470295 10.893632 0.05498018
0.6651497 7.6843467 0.1593347
0.14612176 13.155455 -0.1035987
-2.106625 2.9193535 0.5074103
-1.9855721 8.284137 -3.0337417
-1.5552994 7.788744 0.05408147
-1.3123103 4.880689 -0.3420832
-0.42911354 12.4440155 0.39096075
1.2506455 3.4933336 0.97211343
-1.9098259 2.5051217 -0.13132948
-0.94678926 3.8684542 0.5255234
1.2486194 5.702742 0.5775289
-1.0048661 9.858562 0.7954823
-1.1509448 8.376059 1.1354557
0.13464011 3.3699927 -0.34247506
-0.42057002 13.645584 0.06836546
-1.0083526 5.7677903 1.6029949
0.8882411 1.6509638 -0.18564993
-0.01942262 9.160873 1.3486127
-1.0227553 4.7035694 1.2990235
-1.7294645 7.5554533 0.6742746
1.1462661 8.269648 0.9215722
-1.1762109 6.132279 1.4468969
-0.9483663 4.642802 -0.12111923
0.5901721 8.177928 1.2947416
0.24130355 13.119777 0.26452425
-0.39594743 4.9586096 0.07197118
-1.0970262 9.897066 1.156128
-1.2655542 6.480036 0.48870358
0.8572881 9.746856 0.025999371
1.5579559 3.2107189 -0.28694683
-1.3800567 8.250726 0.8362791
0.39481556 10.656721 0.33056593
0.5980366 1.1104431 0.24425806
-1.4513978 1.2163974 1.309566
2.3483906 8.536398 1.1263878
-0.020717008 9.634293 -0.12409952
1.0822817 7.181212 0.54109865
-0.068835996 7.5974145 1.6163335
2.132852 -0.4018839 0.4694717
2.1493244 -1.7696171 0.68066967
1.4972836 3.0075517 0.06831918
-2.6532555 9.787195 0.5135891
-1.3651656 9.932305 0.13810763
-0.9350846 7.3174915 1.549237
-0.82927406 3.8542144 1.207664
-2.1662707 0.32957393 0.29977345
0.06949249 12.455071 0.45051154
-0.0028750626 9.754935 0.3694331
-3.4360058 7.2081885 -2.681297
-1.5226198 0.13623281 0.89597374
-0.2532649 6.7442455 -0.4680689
-0.46913502 2.4179335 -0.0641326
-1.9812473 0.26347876 1.0960206
0.27817425 7.543174 0.03283397
-0.6597118 10.108553 0.7571195
-1.6875422 0.91353774 1.1842058
-3.4034119 8.056519 0.17162824
1.107061 7.0063105 1.2842762
-0.45403078 11.858944 0.70803833
0.7070672 5.2934256 1.7203562
-0.42788562 2.8231292 0.44834092
-1.2932328 7.3032637 -2.1317492
-0.33089572 2.4490838 0.30188167
2.0474954 1.481859 0.29635224
0.391218 1.8578572 0.29023105
2.3913214 8.924589 0.99699634
-0.11272283 4.8813396 -0.6138619
1.735873 2.122145 1.0408598
-2.0573535 7.282013 -1.9589812
-3.8395705 7.619543 -0.4302007
-1.6078013 7.6235604 0.35160482
-0.6409869 12.012976 -0.4760342
-0.9079267 10.656471 0.8044677
-1.3720798 -0.47143868 1.1669838
2.0681014 7.408369 -0.3849452
1.6235511 0.5160579 1.1483729
-0.44733876 7.3893194 0.68305135
1.1156188 7.180566 -0.085628636
0.30413666 5.3543606 1.7602571
0.64977586 8.131106 0.14635412
0.024699379 4.7932663 1.5037652
-2.0461552 0.6692129 0.10600544
-1.1025531 2.2681847 1.328922
-2.1942103 -1.076182 0.84289527
-1.0471485 3.6952226 0.87204725
-0.29327655 8.052393 0.749476
-0.4095055 8.557986 1.0550323
-1.6267064 10.627053 0.9969715
-1.8566052 7.487163 -2.5749784
0.4250094 8.935703 0.93495715
2.1039524 -3.88616 0.7568572
0.7072063 3.8547702 1.2167249
0.501478 6.3988094 0.0436602
-1.946975 3.5138662 0.146437
-3.8066885 7.256733 -0.3415039
-1.7715328 1.1605325 0.5105103
0.95611465 8.583021 0.66307974
0.9341053 5.6234922 1.6141762
1.1449913 0.03674855 1.0804203
-1.0914556 3.0520973 0.02264033
-1.3531687 6.894029 1.1319337
-1.8663079 10.478477 0.3602183
-2.896865 6.648407 -3.2008443
0.12239198 9.5949335 1.2303208
-0.6664251 12.739752 -0.4297669
-1.5555221 0.82703084 0.18580228
-0.9544849 6.6469316 1.1695628
0.1394442 5.755809 1.8227661
0.9432301 7.2434454 1.6142585
2.1395044 7.1503706 0.0017696209
1.3191407 -0.13805172 0.6100239
-0.11106077 11.632015 -0.82416725
-0.04979379 3.5847187 -0.07373827
-0.18446176 6.1241794 0.45666304
0.3326738 7.182235 0.6986118
1.2525735 5.27855 0.74242574
-1.9839313 8.630395 0.663117
-0.45525813 13.119263 -0.49150628
-1.3916918 5.514644 0.36835787
0.90903515 3.0149157 0.1833272
1.5133276 2.794853 1.1268902
-0.48332262 7.6253934 0.05151167
0.5705935 13.1763315 -0.03897245
-0.15504482 8.410394 1.6317402
-1.5279734 3.4001565 1.2179112
1.2529789 9.804577 0.123965174
1.9913172 -0.7508366 0.3267154
-0.8346409 6.9407325 0.08801692
-0.5192059 11.4289255 0.50801146
-2.04111 9.466653 0.4945085
-2.8358326 9.002767 0.79682
0.50933975 7.439083 -0.28109595
0.9870258 7.8234186 1.2982391
-0.28124088 7.4806476 0.34749225
-0.69071865 4.842525 1.092086
1.0333468 5.255701 0.0837655
-1.0767822 2.6217437 0.59527576
-0.87205493 12.562899 0.30380905
-1.0460267 4.1157193 -0.46224707
1.2405447 3.124179 0.322903
0.40550563 1.8181158 0.67683494
0.7752069 7.6144485 0.96891725
-3.6891441 6.8986387 -1.3591505
2.268538 -3.9365854 0.36988172
-1.7096112 7.1771483 0.66792136
2.803976 7.5357437 0.61705565
-0.81382346 1.2584858 0.92434824
-2.4306045 -4.615102 1.3585088
1.517355 6.3441997 0.85705256
-1.6143814 -0.72438914 0.8818673
-0.25891128 12.493491 0.7366008
0.8875855 2.8684626 1.209397
-3.4896529 7.2722616 -0.008995501
-1.6217312 8.908283 0.58810985
0.7543273 9.837639 0.42261884
-2.1318464 10.263134 0.24585824
0.1340146 9.445367 1.6054629
-0.770743 8.466587 1.1838285
-2.5584245 -3.9600804 0.7407045
-1.497468 6.437343 0.99241346
1.5694195 5.524857 0.81941617
0.07836456 10.872145 0.5089928
-0.86350965 3.4685106 -0.11152014
0.4744794 2.6004915 0.6162786
-1.8288938 -1.5042627 1.4784056
-0.23865664 13.502077 -0.45847708
2.0577853 10.248961 0.52031213
-1.0445753 5.7639556 0.5708355
1.0456438 0.75017154 1.1520418
0.20940028 4.8449454 0.75332916
-1.3992096 7.9436727 1.2046537
-3.5317476 7.1598825 -0.9562861
1.5695225 0.92628616 0.18299142
-0.14963254 8.805268 0.39925456
0.3431845 2.4461713 1.1902714
-0.9682491 9.168525 1.2374084
0.064164996 3.9458578 0.12531777
-0.6801791 5.29112 -0.458429
-1.868968 9.864118 1.1514345
-0.13439135 8.227842 1.2669759
-0.79373413 4.2868247 -0.17798106
0.2562182 12.828476 0.4536912
2.7405176 7.3889647 0.24109724
-2.1634378 -0.028701406 0.09380092
0.8971474 8.089267 1.6115386
0.66067463 2.8782284 0.3963442
0.46331856 5.5175443 0.6133639
-0.59484625 3.116527 1.2610574
-2.1551356 8.41327 -2.7244637
-0.59406906 5.890039 1.4746896
0.6939487 6.5233364 0.76178855
-0.19614986 7.8992753 0.34387654
-1.931984 4.617308 0.45928702
2.2530742 7.957491 0.68162966
1.7713588 8.756243 0.8304952
1.3287753 3.7921922 1.3256735
-0.14418203 11.8891 -0.43060908
-1.7359535 9.966021 0.82320666
-0.06197118 5.565161 0.83379185
1.1235565 1.5666422 0.12496535
-0.35453606 2.8791215 0.840625
-1.1111323 0.61872196 1.011156
1.4608083 7.109328 0.63811237
-2.355347 6.9555254 -3.2234938
-1.8750719 6.9907928 -2.1942017
0.289782 7.5424423 -2.8815937
1.8964821 1.3598002 0.8909519
-0.50276566 3.5388472 0.52133644
-0.5092081 9.086376 -0.2269652
0.60300577 7.13894 1.6693075
-0.17184067 12.139313 0.5244957
0.12976193 12.347716 0.1196274
0.72970617 5.7717905 1.3253232
-2.0429373 -1.1456201 1.5015409
-0.24739672 6.6393757 0.94748724
-0.04168712 8.214906 0.11217752
-2.6636453 6.9554076 -2.364475
-0.5382124 8.807194 1.6792587
0.095565885 5.9140906 0.13311903
-0.8300278 9.175981 0.8720418
-1.1660368 8.032335 0.1666528
-1.6539485 0.47350776 1.079339
-1.7844136 4.590295 0.076197065
0.15905575 8.691719 0.61237746
0.6328486 12.817333 -0.040519595
-2.258168 6.4899387 -3.155537
-0.7890891 5.455651 -0.0847573
-1.8533611 1.2723329 1.2743641
-1.7151511 2.8144894 0.3765747
-3.0928245 8.691969 0.66266847
1.2390184 4.9043303 1.390509
0.4634123 10.3627615 0.6096549
1.8587244 10.4783535 0.7465972
-3.7068644 7.803356 0.31066006
-1.0126268 4.9143877 0.84613764
1.0095092 10.101344 0.18692873
-2.001569 -1.3523488 0.72980446
1.3212512 6.6899595 0.28011394
1.1752628 10.79719 0.68891484
0.7331312 8.223273 0.5553001
1.3189255 3.4102263 1.3025768
1.5828993 3.1997108 1.0808638
-0.054951873 8.376901 0.88799953
-1.7205312 7.4987283 -3.56718
-2.1665406 1.7188131 0.40901148
-2.7963347 -4.5398893 -0.7194523
-0.74394274 9.127704 1.6046202
-2.1392472 -2.585669 1.3031405
1.0478803 10.113841 1.4152936
-2.047798 3.8375828 0.43160218
-0.40868652 12.749075 1.1335975
0.9834253 0.3909814 0.8763553
-1.9860926 -3.9282453 0.8112153
1.4310851 4.7279 -0.15680927
-3.9036217 7.3430824 -0.7955109
-2.0575273 1.3496041 0.2105711
-1.4443513 3.166344 0.75169706
0.6487648 4.6090674 1.7656698
-0.80712205 3.4089303 1.3778768
-2.2320511 -0.0475698 0.93793344
-0.438312 8.557328 1.4086019
2.1588373 8.685703 0.65946424
0.9391806 5.093618 -0.37201896
-1.2388763 6.64353 0.81797165
-0.07921127 13.7180395 0.19017625
1.1580335 4.2448683 0.94706064
0.07491093 5.633179 -0.5893979
-1.5501621 2.758414 0.7300225
1.1956847 4.9578986 0.99445873
1.5512345 10.204828 0.6361152
-0.7096303 5.527484 0.4989431
0.97715944 8.743987 1.3507067
-1.5822582 8.519056 0.062427275
-0.9264805 8.342173 0.82234025
-0.42410412 2.1708536 0.56476426
-1.1969557 5.524869 0.013631457
0.3993758 3.0003233 0.68223333
-0.5906497 6.3517184 0.43866476
1.508889 8.949959 0.53243685
0.25270805 3.6241663 1.5430346
0.5662108 10.031293 0.7955236
-0.04052603 7.31036 0.72693366
-0.025482567 7.9344344 0.99125904
-1.8886831 -0.7783767 1.5795717
-1.1098509 0.22688185 0.5419455
0.10260136 11.420865 -0.0792135
-0.9473684 3.45619 0.62636256
0.99553406 7.050434 -1.9348409
-2.2439966 7.670937 -2.0835125
0.3082578 9.954459 1.1080151
-1.4388924 5.2733474 -0.23603384
1.5169867 9.730328 0.51346946
0.55609447 6.015501 1.0411332
0.7561731 5.372572 1.34199
-0.97847843 10.274587 1.031391
1.2786413 -0.80368763 0.25284714
-2.1729498 -4.5967646 0.9014347
-0.23832993 12.957363 0.8182528
-0.93025327 6.7501907 -0.23901293
0.117961265 5.189882 -0.6001809
0.6225551 1.1247684 0.66988397
0.2666835 8.515715 -0.22847387
-1.4437877 2.0745578 -0.2931684
1.3331848 4.9182405 0.58832216
0.257696 6.545086 0.43766508
0.31714228 9.056232 0.57184815
0.47324014 5.997272 -0.05821772
2.0418048 1.8944352 0.43318743
-2.9498763 6.4503856 -2.8530283
1.8401936 1.0645856 1.1491181
1.0242236 7.4191656 -1.9581418
0.13409024 4.2351723 1.201387
0.4631253 9.214099 0.20400499
0.91887224 -0.7406856 0.57043993
0.5161644 13.374889 0.26281852
2.0732436 -4.160466 1.0916823
-0.751345 2.395819 1.2731392
0.71067965 7.033849 1.3071994
1.8496964 7.0185184 -0.9504777
-0.49843854 2.3355484 0.9233144
-0.96633023 2.5635664 1.0093018
0.93965626 4.838254 -0.024649678
-0.8759674 8.28569 1.5522949
1.0996282 9.607073 0.41169763
-0.16142035 8.022975 1.6546097
-1.5082936 6.9666333 -2.020804
0.29824138 12.611563 0.9933999
0.0701526 8.608902 0.12403281
1.0997204 3.8423624 0.6611843
1.2698283 5.6683254 0.11926081
-1.8063754 0.36747646 0.65578717
-1.0481944 7.3284802 0.5439128
0.4990456 4.425578 -0.5122878
-0.444319 10.122912 1.1022168
-1.8113385 2.3958647 0.54277486
0.98412883 2.292316 1.3368164
1.2214925 0.20014754 0.058411077
2.0894628 7.3721733 -0.8419608
-2.2345228 -0.0651532 0.48803383
-2.187925 2.4934006 0.5572225
1.2987595 1.4969382 0.8786859
-1.1129142 4.059646 1.5763642
0.6648747 3.657562 0.1448602
-0.4594034 3.805526 -0.5296422
0.06477205 13.570675 -0.29973134
-0.6572562 3.0735803 -0.015773177
1.6629974 -1.0249591 1.4236857
-3.8070889 7.4961596 0.010193711
-2.0294218 -1.9094698 1.409327
-1.518606 6.134743 -0.07176061
0.032852784 3.7923737 -0.44782218
1.4812498 8.611247 0.25392312
-1.4073125 4.748538 0.7321781
2.1363347 -1.3233411 0.63333327
1.1502132 6.6195245 1.2961797
-1.6405236 3.9667778 0.4198161
-1.4833126 9.119685 1.2076147
1.666184 9.780016 0.19259085
-0.45795375 8.12632 1.0660276
0.34017962 9.239121 1.2563179
-2.6290734 8.033247 -3.3118854
0.64566135 3.5200665 1.5307357
-1.1438012 9.629805 -0.034858137
2.1843007 -2.2028127 0.7422717
0.48224396 2.5278146 0.23253864
-2.441935 7.2673864 -2.0590248
-0.08087687 4.724503 0.08517979
-1.1021879 10.196395 1.432965
0.09809041 7.632732 0.36801922
0.61186635 12.655733 0.33711827
0.63085717 7.2431207 0.100261785
1.7610978 4.031022 0.84900564
-2.5627294 7.768163 -3.1082692
1.2683382 2.2846732 0.35976502
-0.8109654 13.092132 0.8217361
-1.3498602 10.132549 0.93247813
-2.2648036 6.939737 -2.198584
-1.4789393 2.3160532 1.2506449
-1.0559599 3.0643783 0.66391027
-0.20481831 11.436248 0.70994127
1.2750262 6.2322073 1.1427561
-0.22553596 13.261287 -0.17116189
1.1038971 9.42036 -0.019660411
0.9563351 1.5802656 1.1050632
0.95196754 5.069013 0.42692
-1.4194989 1.9631671 1.3034303
-0.674275 3.4477596 0.98073876
0.9757895 4.6276646 1.1284846
0.7700086 1.735515 0.7370077
-1.8562449 3.1011875 0.7208901
0.85130227 5.365256 0.6868145
1.0727252 10.7271385 1.0683522
-3.4567802 7.182021 -0.40762484
-2.2435706 2.0858963 0.5768937
-0.88090664 4.5080385 0.96062964
-1.0179408 7.787183 0.5022655
1.184992 6.748523 -0.058284424
-1.5228859 4.5169115 -0.24522366
0.6828481 9.428206 -0.09700567
1.355783 7.6170816 1.197346
1.5837055 0.60347307 0.48035994
-0.49481604 5.4109073 1.8474463
-1.9128484 -0.86426204 0.6372027
0.098928764 4.552338 0.4423271
0.8267204 8.493994 0.25048408
0.40862557 8.8024 0.26612818
0.30175626 7.1171074 1.4157636
-0.32655755 5.983098 0.14505734
-0.34874937 9.568743 0.20856072
1.5005102 7.500817 0.78838205
0.54459035 2.7810283 1.0291
0.35789442 5.1830273 -0.062227014
-0.32096687 8.891998 0.07562849
-1.4217253 2.6977468 0.009820155
1.1227697 6.496333 0.85473347
-0.78502893 5.6790586 0.8784691
-1.1671704 5.976383 -0.12392753
0.20285766 7.3340364 1.7934108
0.50504553 9.183986 1.6443789
1.2993801 8.039869 1.2791401
0.85573 9.751942 0.7942161
-0.090161785 12.282343 -0.52593386
1.5864403 0.31032014 -0.17811544
-0.93944883 8.514327 -0.22637334
0.44409057 9.651204 0.25196943
-2.725124 7.617115 -2.5335493
-1.7388206 9.80258 0.45799688
-0.29008675 9.925113 0.73074627
-0.57699734 7.8691216 -0.25876144
1.0740083 9.033374 -0.050928086
-0.152004 12.584023 0.04940107
-0.22915253 4.9099593 1.1555312
-0.057939313 7.2268057 1.4103802
-0.36239102 4.5394344 -0.6036843
-1.9331977 -4.6173177 1.2993786
-1.6154252 9.708263 0.10348162
-0.085521005 13.166113 1.1015686
-0.6630905 2.6865084 0.124901034
-1.187083 4.2909822 -0.050184254
-1.0921628 10.740637 0.45076647
-2.1278749 6.7776017 -2.9044683
-1.6646967 3.6924715 -0.22536594
-2.0098758 9.106277 0.62753737
1.5469162 9.856786 0.9317471
-0.72268707 7.069231 0.45413014
-1.4299853 2.4827647 0.42966014
0.53681946 3.2798128 0.29687995
0.19354811 2.7767067 0.9829187
0.80126923 6.1655173 0.75182164
-0.9040594 4.0794344 0.17092034
-0.98882425 8.962558 0.5573175
-0.7709937 13.095362 -0.22270249
-1.3503128 0.92108417 0.53900814
-1.0848718 5.0681224 -0.026811942
1.6349403 4.58606 0.16229594
-1.6035793 0.26870835 -0.14410953
-2.2426505 7.5995564 -1.6802543
1.371767 6.3232274 0.47534817
-0.38614142 4.8292217 1.514373
0.47764143 1.4655206 0.806444
0.055797115 3.452052 1.2133713
-0.9242956 7.669212 -0.21044399
0.54198205 10.311453 1.0843228
-1.4269409 6.8914733 -3.1001108
0.25547853 5.507809 0.1958068
0.79800326 10.952657 0.7870703
1.1869828 2.601655 -0.37890944
2.028453 -0.07361935 0.31273097
-0.9772112 0.9476853 0.75222045
-1.6148839 2.8880334 -0.29858297
1.6886293 -0.7817585 0.07893067
-3.0438414 8.7268715 0.25211054
-0.7254531 12.351366 -0.28210816
-0.92437756 8.064748 1.1742158
0.55230623 7.933488 1.6443143
-0.8773596 2.6662211 -0.20609672
-0.53226304 1.79565 0.44309705
-3.6770945 7.8222456 -0.09937805
-2.1750925 0.25594974 0.68975955
-1.2177756 7.1042542 -2.7823899
0.26618782 12.072053 0.42509717
0.8709237 9.391793 1.5695499
1.8091519 7.3116293 -1.142384
-0.44109714 7.676183 0.9645031
0.5471633 5.695254 1.7029078
-0.80858064 13.38294 0.04615697
0.04883121 7.2144303 0.33435142
-1.0094368 3.0463614 1.3947017
0.19340567 2.6074529 -0.03844092
1.8333051 1.4575472 -0.012750901
-0.39556187 5.349841 -0.118205525
-1.286683 7.861745 -0.1757779
-1.7192616 -1.7955343 1.244184
-2.3318672 7.054486 -3.6098757
2.0664837 9.220177 0.19749326
-0.21710451 5.884792 -0.5464645
-2.0823085 7.331811 -2.3148198
0.69463617 3.9655983 0.48725417
1.2807486 5.3108807 0.38138652
2.2156112 9.709584 0.89848375
1.8066256 -2.1727095 1.1423627
0.17899959 6.9512424 1.8072908
0.5541549 8.782811 1.6461196
1.476814 2.8324656 -0.32504693
2.2148516 -3.1059976 0.8060303
-1.761924 1.6025239 0.3429869
-3.1170652 7.1216483 -2.9409225
-1.2673743 7.279607 1.3771639
-1.3701832 0.2491036 1.2774374
0.1641811 12.253231 0.8654604
-1.9100341 7.047173 -3.125826
2.0029147 9.612926 0.22601546
-1.1203262 7.2943344 0.99171233
-0.02484683 11.940786 0.24574934
-1.2903337 0.24361299 0.17359143
-2.0364168 7.469014 -2.901551
2.4051619 7.1120396 -0.2913658
1.23759 1.8102229 -0.28574556
-2.8701663 8.329939 0.48638952
-1.3424602 8.718641 0.38573647
0.21734065 2.4445078 0.8099861
0.6091204 6.159282 1.3877841
-0.9593404 3.7167742 1.5624809
0.23547909 8.3868475 1.3910714
-1.0330312 1.8107219 0.6745725
2.0117333 0.6818493 0.3741929
0.94225943 6.8350153 1.6142211
2.5451732 8.604368 0.7971087
-1.3191609 9.380539 1.3521025
0.7992505 10.679805 0.48388436
-1.3219848 7.088421 0.74414116
-0.73951226 8.749398 0.82920456
-1.6617401 3.216385 0.3972323
-1.1436002 6.9230137 0.45716786
2.6199465 -4.031202 0.23918356
0.45306918 6.975576 -0.35056078
2.2481313 -1.1052523 0.87840647
-2.6394603 -4.305371 0.67857414
-0.26589918 8.737679 0.77324283
-0.82235324 2.9868124 0.979596
-2.1157646 -3.6162918 1.2035853
-1.7796474 8.9234495 0.9717789
-0.83492976 2.7363226 1.3641027
2.14281 -3.2335885 1.15023
0.21994932 3.5872574 0.18375492
0.83567464 2.4618647 -0.35084575
1.6054124 1.3805679 1.1954495
0.58217525 9.4289055 0.59427345
-0.3081905 4.474213 0.387632
-1.6730913 4.9707813 1.0460794
-1.3570507 0.91627073 0.965371
2.7382925 -4.6255383 -0.13267013
-0.24751419 3.2268362 0.61541474
0.33234212 3.8052835 -0.19071497
-1.5311149 8.105367 -2.3318412
-1.8140358 -0.3139302 1.5538052
0.31667873 8.336421 0.33401406
-1.1505241 4.9473352 0.42030978
0.5032181 12.339569 0.33669916
-2.9516816 9.091885 0.45770484
0.93110496 1.3396014 0.770277
1.3343352 0.6314027 0.8317376
0.8538541 10.494204 1.3236711
2.117456 -0.12002014 0.76592577
-2.4605997 7.2624454 -1.6796075
-0.5509285 4.086488 0.4827039
1.9989284 2.2758026 0.33659416
-1.7582046 10.270161 1.1277844
0.2529662 6.1256604 0.40659887
0.76297307 5.509253 -0.3987194
0.90076435 4.9170585 0.7738163
-0.91248596 12.830601 0.5552158
0.8321776 6.7664266 1.0003421
-0.330012 9.164759 1.593775
-2.1566155 6.581502 -2.0189114
-0.88937736 4.2731853 0.57158875
1.5405772 -1.4559804 1.2425016
0.11459596 6.602137 1.0273948
1.3603497 3.8287854 0.04753787
-1.3929211 9.6704 0.63143635
-2.6052625 6.4217787 -3.056044
-0.5155126 12.483312 0.0034346452
-1.7525302 0.6353752 -0.19419709
-0.6720801 8.894412 1.2339891
0.15543404 3.5723872 0.86332446
0.28783232 8.171931 1.0649265
-2.5761616 7.8982563 -2.7413912
0.14653346 7.326452 -0.32742646
0.38207132 3.669855 0.4872811
-0.8455041 7.3971868 0.08265285
1.8820411 9.855505 1.1387837
0.43047664 7.4083495 0.38171846
-0.34783018 12.175618 -0.25568953
-1.2325006 2.8470535 0.95742667
-2.5795436 6.6497374 -2.0486798
-1.1411358 7.408339 -2.5090373
0.76499987 4.713201 -0.5089035
1.8481593 -0.78852963 1.050864
-1.076333 3.6599312 0.1990335
-1.0763857 5.2937756 -0.33875585
-2.8767502 6.8195977 -2.7537453
-0.2989213 3.9055727 0.7241326
-0.69331926 13.491818 0.38487384
0.73796237 9.02311 0.55796033
-1.8969231 -0.43705073 0.48362654
0.95647377 5.9446125 1.067974
-1.9263844 6.411238 -2.8201718
0.84147954 -0.28964946 0.49651617
1.4455805 9.037307 0.13506904
-1.3255683 3.6822917 0.47242323
0.06811065 12.72597 0.7543352
-1.6497593 7.063055 -2.510651
-0.90884656 12.980532 0.14677382
0.39862666 12.063124 0.062123958
-1.1940091 -0.14903632 0.791626
0.71484786 5.2431016 -0.112550505
-2.3409455 -3.9246974 1.0950608
0.8139437 4.053976 0.8438675
1.099131 5.248528 1.4831074
1.4690826 10.008317 1.2999054
-1.3404206 2.269902 0.051028285
-1.8883715 1.4809194 -0.06390452
2.2032812 -1.6897786 1.2817836
0.7412778 0.37366053 0.5189133
0.27987218 11.95647 -0.58339924
2.3556402 -3.635871 0.60931987
1.5349376 -0.11241528 -0.09641257
-0.20129834 8.050936 -0.29368994
1.7648994 -0.17898214 0.6477414
-1.0615865 1.9866536 -0.25666368
0.1491596 6.3035636 1.4237088
-1.4497833 5.6901736 -0.1956226
-0.8480092 9.378217 -0.13698158
-0.688851 1.5295746 0.22106576
-2.3983326 8.280579 -3.0382621
0.8541012 1.2408427 -0.08790925
1.5725952 4.9938216 0.1026703
-1.1687452 1.9037548 0.14813025
0.235954 4.633089 1.8615673
1.3185177 7.2840204 -1.8514643
1.5840261 7.3048906 -1.511488
1.8244119 7.2070427 -0.68506455
0.24560326 4.1495404 -0.5596369
1.1195531 5.504895 -0.22115864
-0.6951609 10.811514 0.34245118
1.1747636 3.2357914 -0.11734389
-0.6105566 6.5262146 -0.3774519
-1.8026863 7.4496098 -3.222595
-0.5096201 2.0952814 0.1542202
-1.2862155 6.132687 0.6893709
1.8116809 0.68093985 -0.0021689157
1.3396995 2.0600295 1.2389957
-0.55806607 8.398098 1.7435589
-1.0989593 5.0678453 1.6105133
-1.3160522 2.4367568 0.8764427
-1.558135 7.348139 0.054819405
-1.6126035 4.9238143 -0.07665678
0.7421952 2.2086058 0.17307295
-1.6442066 8.582193 0.8949782
1.2376407 3.0505254 1.1886508
2.6168175 -4.5657477 0.2963481
-0.43089297 9.507618 -0.15973265
0.49145883 9.61977 0.9633806
1.93056 0.2545455 1.3073387
2.020901 8.78651 1.0990349
-1.5917883 6.5089808 0.25058797
-0.18120843 11.545061 0.28108966
-1.598119 6.585297 -2.9789035
-3.3108044 8.412964 0.41585225
-0.88347584 1.6727114 1.0020803
-0.11010441 6.54507 -0.16890745
-0.88401175 4.6970043 0.5875277
0.13106553 13.186694 -0.5394256
-1.5743731 -0.3156997 0.7856943
-1.4773475 6.729559 -2.316567
-0.86547893 9.563211 1.1965412
-0.83834916 1.9958535 0.40695164
-1.1535987 0.8942534 -0.0039094007
-2.3028738 7.1465483 -2.9101174
-1.38557 0.53083104 0.7905128
2.6853456 7.926939 0.6436453
1.625596 -0.76307696 0.46493277
0.8109834 6.0254645 1.6710994
-0.17093745 11.475628 -0.36537027
-0.6159899 5.871673 -0.14267859
-1.8423191 7.930303 0.51862466
-0.8288411 4.8320475 0.19315514
-1.4735979 6.1073956 1.1688366
1.3981737 7.192066 1.0911926
-2.1996737 1.3193413 1.0448114
-1.697397 6.8146076 -3.3619833
-0.49248403 13.208867 0.124681145
-1.4801992 7.519582 -1.9023043
1.1259189 -0.47124323 0.32940495
1.2144338 5.5779138 1.3000494
0.7923609 3.228854 -0.10920394
-1.5561161 8.424877 0.4887004
-3.0837607 8.312271 0.15139943
0.15694277 3.2934682 0.4960376
-1.5859307 9.289616 0.84472495
1.1174114 8.9866295 0.73626757
0.53854024 6.5830617 -0.3698101
1.2785242 10.398705 1.2385583
-1.220413 -0.11440496 0.38231036
-2.326261 -4.5987844 0.45028657
-0.98540896 6.514355 1.5621462
1.4921042 2.565352 0.06340287
-0.56323457 4.6937857 -0.26541638
1.5215011 0.726852 -0.21614946
0.3952411 11.0379 0.88715273
1.5751683 1.6001546 -0.24789575
1.5141886 -1.3226329 0.86416966
2.2925134 -4.300668 0.29940844
1.8437849 0.03256472 0.0021823882
0.6160447 4.5446124 0.1361972
-1.5913739 7.8403974 -3.3473258
-0.4498938 8.05692 0.0621183
0.22277005 8.178956 1.7525369
-0.45132607 3.81653 1.101348
-0.93740857 2.2748013 0.115623236
1.6918479 0.8166576 0.87938523
0.5561832 7.5224023 1.6537395
1.7103026 4.824461 0.45167974
1.4322134 2.4103749 1.1161081
-0.12509511 7.390626 -0.016558364
-2.6478515 7.156861 -2.731377
-2.6962416 -4.1976886 0.28837872
1.7599416 2.9009118 0.8356991
-1.9880083 -4.2846622 1.5329119
-1.3921037 7.54259 -3.2720447
-1.2255603 -0.6461073 0.8662464
-0.8372765 3.3229692 0.27887315
-1.5449297 -0.36663896 0.32617202
0.71250474 6.6104627 1.3493636
-1.8472323 5.003035 0.26636195
-2.588349 7.602436 -2.18278
0.8627571 2.528936 0.37678042
-1.2961969 4.420137 1.0850557
-0.24089831 5.029324 -0.27898455
-0.64088315 11.982925 -0.062563926
1.5735011 3.3063397 0.44513848
-1.2578133 7.442788 -0.17091677
-0.79767907 1.2073478 0.48227474
-1.0335579 5.3496003 0.30261225
-0.9501999 6.898497 0.8197989
2.5659938 7.723235 0.2147955
-0.2678225 5.363197 -0.54374415
0.15082751 9.402738 0.51013577
-2.284407 6.890851 -1.7717836
-0.39849555 12.77808 -0.69392955
-1.3824141 1.5203241 0.123931594
-1.0862676 2.6129208 0.14863229
-0.5510597 5.6610837 -0.46040294
-3.4987974 6.8201513 -2.785801
2.2928085 -2.8473995 1.0987594
-1.6138923 4.5750747 1.2214518
-1.9992787 1.8580768 0.10180347
-0.5587447 12.407352 -0.65779686
-0.66212946 5.762949 1.8184282
-0.79405427 9.600115 0.23448911
-0.40340137 5.8291016 0.80298793
-0.05028253 6.7710557 0.24468836
-1.1737447 9.443744 0.97402626
-1.5448301 2.4810922 -0.30182105
1.9036896 -2.444468 0.9134117
2.05774 -2.5148342 1.2527189
-3.1324644 7.2403383 -2.2534623
0.77493614 3.9561093 -0.1570486
-0.9553117 6.1803346 0.46762118
0.7683154 7.134921 -0.2431898
-0.68317235 9.796983 -0.06594388
-0.470697 9.88367 1.4753736
0.4710472 3.9965553 0.16285917
-0.8296911 6.176873 -0.28746644
0.97900236 5.280158 1.0591127
0.84385186 10.215467 0.5731561
0.9444333 6.957388 0.19327825
0.85632026 0.06991861 0.35648203
-1.6107161 8.13856 -3.0322332
1.0615491 3.6478548 -0.13443519
-0.93598396 8.105401 -0.20033143
0.5120141 2.33696 -0.16293412
-0.5942669 11.195524 0.22250463
-1.5100653 5.411796 1.164057
-0.546079 8.295508 -0.25099525
0.38730758 9.668816 -0.09368497
-2.2319465 -0.3723311 0.22112666
-0.122318 4.3219547 0.06384576
-2.3408387 8.348192 -2.3733718
1.4984485 -0.11006288 0.9806327
1.9038599 0.3420718 0.20787378
-0.0817757 3.7939737 1.2581275
2.1258574 0.9630278 0.9244556
2.1562605 1.1268742 0.5614161
1.4615035 10.167692 0.24860458
-0.27796715 5.6944017 0.47262156
-0.5164042 8.690029 -0.25984457
-0.67763245 3.7896912 0.7707322
-0.49501786 3.154654 -0.3893839
-1.339907 6.5098596 1.3306856
2.2990227 7.544036 -0.049434576
-0.7815755 12.4572315 0.6570521
-0.62179023 13.383325 0.7688855
-0.20040864 4.13983 -0.5591244
0.4714498 2.70964 -0.30605128
1.0551171 2.397617 1.0215607
1.2883334 5.090643 -0.18227366
3.0919573 -4.5727353 -0.1663568
-0.53205854 3.7216778 1.4802403
-1.1544542 3.5986044 1.179706
1.1931733 4.1911125 1.4021555
-0.6287964 9.755615 0.55491954
0.34070855 6.946718 0.3357587
0.56900173 8.641099 0.5905295
-1.3505685 3.7699845 1.4712131
-0.80198073 2.0599644 1.1230143
0.38203117 7.315842 1.0431628
0.93368524 9.500603 1.1472387
0.66908824 5.60757 0.983923
-0.76122093 2.2339814 -0.20363422
-0.6337234 9.519266 1.5689051
1.5163232 4.834646 1.082942
0.17510618 6.5196238 -0.49317974
1.628807 9.194625 1.2226807
1.0095842 3.593918 1.4187441
-2.6455212 6.956251 -1.8643173
-2.1251156 -0.7015818 0.13711363
-2.2048433 -1.5447284 1.3364301
-0.25623092 6.484326 1.7537649
0.84778345 6.749171 -0.2575313
1.8694253 3.0967705 0.09914036
-1.8724521 3.8426065 0.80352247
0.9578673 8.30211 1.2792097
-1.3625733 10.442072 1.2419667
-2.0781927 -3.2462797 1.2446978
2.2967658 -1.9300251 0.9921237
-2.979602 -4.5791597 -0.36808357
0.8139262 4.2526326 1.6253389
-1.942413 2.724113 0.81721085
2.006551 2.2246153 0.7503012
0.030374244 9.69388 0.8517322
0.4554967 6.451704 1.1446514
0.88259757 8.527625 1.6198009
-1.9249734 4.2265854 0.24855597
-1.0447011 8.784122 1.1232554
0.5329945 3.9486527 -0.5540117
1.5270462 4.3592677 -0.09736295
-0.8127538 6.0653167 0.84294045
0.69477266 9.082333 -0.15893257
-0.4622829 3.1593742 0.2654724
1.8096075 0.4781662 0.7708262
1.3609296 1.8696362 0.4540865
-1.8579727 8.101873 -3.333575
-0.5658147 4.512332 0.67269164
0.38223413 10.057503 0.38283578
1.7092496 4.1713014 0.17096013
1.226086 7.5412655 0.04731041
1.2478842 1.3728137 -0.25457764
0.25567728 11.707881 0.1724374
-2.6357572 8.19344 -2.1819842
-1.6608112 10.329014 0.7133189
0.57561153 10.022111 0.048170634
2.3269258 9.316339 0.89916337
2.1117165 -0.12931895 1.1751802
1.49669 1.3483235 0.13683219
2.578027 8.282065 0.6229322
-1.7665772 8.212447 0.7775555
-0.12578854 11.188845 0.25565514
-0.0363534 9.874576 1.4744412
-1.1978128 8.130725 1.4805713
-0.14226133 6.0092125 1.4772395
-2.370938 9.679903 0.22336371
1.0925801 2.8840637 0.5616121
1.3297901 4.1566334 0.2620337
1.1863608 1.2253226 1.1298517
-1.6313187 7.75542 -2.4240973
0.18903422 4.9310317 1.1421326
-0.21061015 3.1431859 -0.13987872
-1.7523291 8.299625 -2.682277
-0.17194429 3.4203236 0.25025177
-0.1099031 13.362101 0.21316773
-1.1715703 4.501429 -0.4427949
2.2299342 -1.2696179 1.2353096
-0.7159638 9.903735 1.11933
-2.4239047 7.9432526 -1.8330141
-1.9920257 -4.2324944 1.0895795
-0.6521054 6.4999914 1.809233
-1.896739 -0.8913102 1.1355171
1.504616 3.6266255 -0.27688593
-1.7339206 -1.6088856 0.92814577
2.0762804 -3.4736853 0.81540287
-2.425577 9.253895 0.9437522
1.0638359 1.9622262 0.1083803
0.059310697 7.0476336 1.0341163
1.6525495 5.1141057 0.8057811
-2.6927044 9.414772 0.30389646
-0.48888335 4.1298013 0.11257159
2.6974707 -4.1864758 0.90872467
1.0251081 4.2573295 0.5300291
-0.027585566 7.5105333 1.0987256
-1.6912748 3.0768707 1.0773011
1.9751618 2.6311686 0.609576
1.495538 4.062923 1.1319674
0.84282535 4.2692738 1.2013727
0.016259056 4.5790267 1.0839666
-2.6453943 7.593915 -1.7695708
0.887372 7.281739 -2.2678294
0.7735822 4.481467 0.8077832
-2.2648706 -0.39650777 1.1213996
-2.1957252 0.6501991 0.51960576
-0.020489944 5.359077 0.4842411
-0.49706742 6.8594894 1.826978
2.360958 7.6192107 0.45990825
2.5859792 -4.5983634 -0.66864884
-0.70562875 5.0384283 -0.16620272
-0.2624396 9.518695 0.6386142
-1.7388488 -0.7267381 0.20475687
-0.17231447 4.6586175 1.8676766
-2.746491 8.504595 0.8019432
1.5015306 0.42966342 0.1777664
-2.6421516 -4.6012063 0.09357835
-2.5230563 -4.2479577 1.0978587
-1.6272762 7.2483745 -2.9010553
-1.5707258 3.5457587 0.16980284
-0.8953781 7.8556 1.5528587
-0.5238404 12.39117 0.9837364
-1.4089439 3.9081116 0.051978182
1.73915 1.2746445 0.4743945
-1.6721456 7.2203074 -1.7839094
-2.7674613 9.426023 0.69702095
0.026606739 3.1773775 0.8693268
-3.3764966 7.6326427 0.13689466
0.015312113 13.157425 0.5796213
-0.483608 10.519833 0.12545247
1.8939177 1.8720138 0.03699997
1.1296461 5.976554 -0.07395092
-1.2988946 4.7104063 0.042367414
-1.5010096 7.5753856 1.1020349
-1.6510522 9.365898 0.44525525
0.62866396 5.365008 0.2697463
-2.966849 7.805089 -3.1310499
0.612881 8.605808 1.2816049
0.8312378 3.318546 -0.4959896
-0.9056823 8.581346 0.4656122
0.28644305 13.038759 0.9346991
1.4166247 7.43203 0.3816289
-0.192521 5.359288 1.1609312
0.25695288 7.527368 1.4016173
-0.0855086 4.932417 0.43913656
-1.4247664 5.081089 1.3449547
-0.9105657 5.85606 1.2218726
0.85137045 0.7653728 0.7643598
2.0524442 8.394864 0.9208206
0.26032668 4.5425134 -0.18617809
0.92581546 3.2785292 1.2987648
1.6518472 2.087969 0.26271847
-1.0291291 5.1219025 1.2108686
0.28097135 12.314399 -0.67826205
0.09093972 8.021971 0.5921281
1.9221514 3.0514367 0.5029868
-1.1958289 2.0659773 0.9579685
0.4733279 3.1396358 -0.43506324
0.027673589 5.593727 1.4580773
-0.1916751 11.767138 -0.04751385
2.1942563 7.079131 -0.6677911
1.1389291 5.9326463 1.4002315
0.31675923 2.8358939 1.3580619
-0.56172174 8.956104 0.48615098
-0.25412253 10.239618 1.4088708
-1.2589287 9.248924 0.61478674
-2.5406222 7.3680105 -3.2046304
-0.040728297 8.629059 1.2414631
-1.2094535 10.804495 1.0901183
-1.0933857 5.34103 0.6706969
1.0338484 9.094593 1.1213064
-0.679476 10.466569 0.53675574
-0.48416758 4.828777 0.4180826
1.2243698 2.6813068 0.30224755
-1.6341488 4.2120957 0.94089127
-0.16640893 6.5228186 1.3723435
-3.0389738 7.876109 -2.7315185
-1.4910041 -0.7172355 0.50853175
1.5955296 5.6365337 0.40301389
-2.0112176 7.917981 -1.8187593
1.5227231 0.1542431 1.329046
1.1622645 2.6388006 1.3041394
0.2247906 8.604324 1.722014
2.3592696 8.073074 0.31817883
-1.707987 4.162351 -0.120278195
-1.3518612 4.748966 1.4959574
-1.6111281 5.7496066 0.9951641
-1.4480431 8.072682 -2.6968238
1.8350569 3.6676505 0.7135134
0.80753344 2.7958667 0.77650833
-0.76022726 8.35748 0.11087068
-2.551207 8.318703 -2.6764789
0.6739559 3.163698 0.9848871
0.46479103 3.3842673 0.7565644
-2.049343 2.6501987 0.23610407
-1.8636751 8.713664 0.27742806
0.016003896 6.3649583 0.7252089
1.5397615 1.188543 0.8283738
2.2902164 9.434907 0.527056
-2.2676349 8.849712 0.4014024
2.221299 -0.7698017 0.66454595
-0.42513627 12.883723 -0.13584524
0.42266303 12.58268 -0.45727408
-0.43789667 4.541224 1.0482465
1.237707 9.263329 1.4226503
-0.81259704 6.2622595 1.2886387
0.24695943 7.126356 -0.017173233
-3.839667 6.9469543 -2.0344083
-0.23826432 12.116263 0.9124611
-0.27900177 7.244724 1.7520318
1.3404067 7.072506 0.24052775
-0.34513718 7.2632117 1.0684097
2.1296816 -2.0983565 1.2755668
-0.3226575 9.706113 1.1284871
1.4159315 4.1029673 0.64011467
-1.0020621 4.0965657 0.8810503
1.1287504 9.182255 0.35359153
-0.04075693 11.99054 -0.81709504
1.7951441 3.9268925 0.43186638
-2.7124372 8.576246 0.20807147
-0.6733341 4.5793715 1.3957082
-0.20857841 2.7773988 0.055634443
-1.7974494 5.3820767 0.42587504
0.50783557 4.7037 0.54654706
0.09750009 9.030836 0.16938652
0.46805167 12.454191 -0.05452478
-0.53573257 6.0922303 -0.4778935
-0.87203777 6.4438577 0.7939912
1.4774057 10.58201 0.9437692
0.27605593 7.9633574 0.12241234
-0.087346196 5.4020934 1.8304244
0.33851746 8.305432 0.7015451
0.5241647 3.9118376 1.6522176
-0.9002323 10.448528 0.18326333
-3.6021593 7.4664564 -0.6957142
-1.9068445 6.5611687 -3.184006
2.1855295 -4.322173 1.4456398
-1.6106647 5.7589364 0.1509462
-0.015878513 12.818355 1.1469786
-1.5557817 1.8563788 0.066232726
1.2516396 4.871278 0.21783194
-3.406246 7.677413 0.5417708
2.413506 8.991666 0.5853899
-1.1085901 3.3249025 -0.39028716
0.051337328 6.8656297 0.6558256
-1.3493464 0.65520036 1.3152523
1.1026849 0.62596065 0.5169408
-0.10978158 11.0890255 -0.14749098
-0.6370648 3.1605444 0.6813196
0.88767594 6.540407 0.118767045
0.201523 6.1236806 1.0867686
0.6489387 1.365711 1.1022391
-0.7208329 7.1904707 0.8376015
0.4001588 10.55793 1.3239322
1.4094243 5.9820123 0.24477811
-1.607965 8.146719 0.15852408
-0.60548556 9.325662 0.5315435
-2.1149056 -0.4864605 1.4517803
2.6107254 7.4559746 -0.14623806
0.48789915 4.2118235 -0.17425616
1.6249007 1.604815 0.6999994
1.8590026 -1.1791774 1.0435864
-2.8296916 8.144655 -2.5294144
2.1860714 -2.6779568 0.786723
0.2528593 13.538137 0.44381303
1.8196129 9.9307 0.65991765
-1.770579 6.61428 -2.1124778
-0.029566865 5.1530924 0.09124408
-1.858185 -0.38591468 0.031009227
-0.14690246 4.5985456 -0.2686297
1.1717628 10.450445 0.3774995
-1.6037918 7.6613803 -2.877812
-1.3254101 7.558655 0.7194531
-0.56987566 10.172885 0.005526576
-0.2306368 9.232024 0.32352176
-0.4383768 8.189191 0.40605995
-1.6616066 6.520419 -2.5498703
2.3777654 -3.4669495 0.9648838
-0.8933691 6.6346874 0.43318254
-0.9129584 3.7372456 -0.48595166
1.3165036 10.144368 0.94334424
1.3195388 8.886508 1.3559356
0.1673709 13.402827 0.8511202
-2.99833 7.2505603 -2.618209
0.5019317 8.500199 0.054147273
1.1363188 8.792215 0.36856127
0.94483 5.5637727 0.3623661
0.98451537 6.7750645 0.56318533
1.2382545 0.26298967 0.47602308
-0.18034035 9.346156 1.018472
-1.8023841 2.1399603 -0.16004328
-2.170881 9.818706 0.6275938
-2.0869343 -1.7820073 0.79250216
2.0646665 9.084332 0.65814555
-0.17069282 6.240379 1.1027318
-0.7504483 6.122398 0.1277693
1.7990447 0.10395708 0.96924925
-0.6430982 1.5199025 0.679921
0.16671133 7.7346697 -0.30781615
-3.2367845 6.5363417 -2.6664028
0.144397 4.932905 -0.26052934
-2.0500212 3.4044814 0.5183194
1.518338 -0.30864447 1.359782
0.70069313 8.406014 0.9369734
-1.6775005 5.365174 0.043667838
-2.460874 7.9250402 -2.34339
-0.5675905 6.675887 1.4377383
1.6078461 1.7765002 1.0646882
-2.070452 2.328762 0.86648625
-2.0991213 0.950084 1.1853608
-2.1207182 1.9835922 0.94555545
-1.1967976 7.672714 1.4703391
1.2308891 1.8692677 0.8895701
-1.6422365 -1.0982502 1.4810153
1.1264087 9.84091 1.1094289
-1.0339555 1.5723062 0.35360333
-2.6198006 -4.617857 0.898592
-0.51161575 6.0319386 1.1178397
-0.2713114 2.5175204 0.6785284
-0.23680553 4.4938974 1.3782933
-0.7118839 8.789266 0.12096691
2.0317657 -4.6171317 1.2609359
-1.4690046 1.2473116 0.8749228
1.1814786 -0.14282855 0.21871428
-2.421548 7.5133677 -2.8403397
1.8773586 -1.3839974 1.4138272
2.3139644 -2.3877807 1.0273604
-1.6920233 3.5737805 0.56731963
1.5194345 10.623546 0.5581229
-2.8240848 7.4985447 -2.8986917
-0.53488636 9.3106365 1.2337714
-3.7368062 6.8000207 -1.766527
0.17021519 5.3227744 1.1281521
-0.50384617 4.944759 0.78836614
1.1167572 8.043217 0.5896043
-2.0334463 9.901489 0.19372386
-2.6447837 -4.336388 -0.17831182
-2.3983164 6.458869 -2.3265479
2.087555 -4.2534165 0.66358393
-0.8632876 3.0597937 -0.3186527
-1.6390527 1.568453 1.1518307
-0.13217345 12.975613 0.14695217
-1.6485945 -1.1498562 0.89772004
