-1.7708136 0.87950605 0.8422767
-0.6288369 5.5780706 1.0593061
-1.4786777 0.72530264 -0.090354964
0.79642916 6.4857564 1.6568202
1.4203585 8.156511 0.33872023
0.02949092 8.972729 1.5994742
1.4648169 0.12374672 0.23180588
1.9710574 0.26535517 0.52095073
0.6553666 7.1383514 0.41411182
-1.8398421 3.3749611 -0.1571571
-0.94646156 9.17659 0.24946484
0.66292524 7.4702516 0.6564492
0.8266281 8.296279 -0.18751206
0.4368869 9.485947 1.613133
0.52939975 4.7680306 0.8765794
1.5805222 0.33444476 0.51618445
2.101307 -3.5313294 0.7483292
0.47808313 8.33478 1.6531365
-1.0832876 9.329185 1.6329639
-1.1262386 4.577346 0.22120959
1.4692584 4.0186963 -0.27279547
0.7736889 0.8376493 -0.009971853
1.9008188 9.613106 0.62417364
-0.9755345 7.7373357 -3.8856661
0.3037491 8.805465 1.2829328
-0.20013829 4.2992473 0.7170787
-0.17293161 10.68564 0.91875947
-0.43106413 12.613664 -0.17743386
-1.2976027 3.256585 -0.34501576
0.01246647 7.281477 -2.296446
-1.7959685 9.462324 0.8991104
0.680104 8.834212 0.9782216
2.3803434 -4.622139 -0.2069795
-0.6706492 13.493649 -0.13005924
-1.3605816 2.6206846 -0.3395512
-1.454277 7.905287 0.5490562
-0.30216783 9.910159 0.00096342847
1.0346572 6.00836 0.34889892
1.119425 4.726012 -0.4297437
-1.0718001 7.248792 -0.2887098
0.27183124 4.5188565 1.3807353
-0.52689207 13.626879 0.46329
-2.6217198 8.893486 1.115084
-0.21564567 7.7085094 0.662997
-1.1534293 0.2627405 0.75466496
0.0847075 9.376693 0.21287575
-1.9719851 -0.2079028 0.8858253
-1.5015945 4.247468 -0.37010947
3.0595605 -4.59388 -0.5847661
-1.4101952 4.999409 0.9106272
2.5766826 -4.655369 1.27042
-2.1943634 -2.3748126 0.91715187
-0.53490156 12.792619 1.2436554
2.737866 -4.6672254 0.7585355
-0.7567025 5.083955 1.7458643
-0.49860215 12.147777 -0.6068283
0.46955848 2.240595 1.2063313
-0.7270008 7.9178133 0.79246634
-1.4283528 7.6121182 -3.2023528
0.8128435 8.939752 1.6474074
-0.66861415 5.97962 0.41229895
-0.87884444 5.473777 1.6775359
1.5402678 8.264709 1.0697782
-1.4619366 5.2434087 0.16164625
1.0374479 7.440828 1.2953103
1.7009919 -0.88815594 0.62981725
0.02725739 6.919938 -2.4850934
-1.1271785 6.9567394 -3.0591848
-2.0858712 9.530585 1.2063787
0.036116593 2.5543723 0.23982766
0.5052079 5.1782494 0.93337774
1.3581372 3.3702908 -0.01225737
1.6850606 4.330274 0.51130867
-1.0811384 4.773322 1.6191264
-0.06627145 5.1693187 1.3863008
-1.7327862 9.382575 0.18214926
-1.3386006 9.147797 0.31649113
-0.3162911 7.700552 -0.3996116
0.43583676 4.4515085 1.0070755
2.2616808 -4.631067 0.7829484
-0.35700232 7.8894725 -4.16649
-0.040168688 8.787767 0.9435962
-0.5186919 7.200014 -0.019573282
0.40731573 6.7583647 1.6568838
1.0370345 9.991867 0.68044233
-0.6235573 2.8649564 1.0995353
-2.1448867 -4.2631674 0.6319599
-1.1772811 7.6182656 0.15168056
2.4684417 -4.2370634 1.296407
0.117215395 5.823305 -0.27757215
-1.5759774 -0.04024123 0.17833547
-1.2580315 7.5118313 -2.6916764
-2.32227 -4.22184 0.19164252
0.36030534 12.225256 -0.19358422
1.1034116 6.9111238 0.86758864
-0.23612338 4.1617203 1.0995649
1.4578875 1.659694 0.07550679
0.20469004 5.0613937 0.2968627
-0.27675584 3.562305 1.2573217
-1.4460847 0.68503445 0.5526563
2.0668998 1.5085139 0.5607758
1.9761604 9.102203 1.1161513
-1.6082356 7.793397 0.9270874
-0.78934187 10.211821 1.5338602
2.7981503 -4.2165465 0.118339986
0.11559363 9.962555 0.03557664
-1.5676292 1.1053855 -0.21479797
-0.16091467 5.1210976 0.7608874
2.8111966 -4.5736504 -0.88123953
-0.8760961 6.7642317 -3.3075306
-0.3986755 10.224816 0.5784791
-0.69862205 7.6472335 1.7260419
-0.044493947 7.87917 -3.7565072
1.8865014 1.8078978 0.7954934
-1.1267816 8.961486 0.95090365
-0.6239939 7.7519255 -2.7360604
-0.7646937 8.20495 -2.7297213
0.6231693 2.5787182 1.3064185
-1.2280933 8.425191 0.23785068
0.46551 4.1412373 1.2968618
-0.5774501 11.754433 -0.0963892
0.88209426 1.0138807 0.45476905
1.3241663 -0.8592254 1.2400935
0.04475266 12.72094 -0.5634031
-0.27706808 8.143796 -3.5385094
-0.6011972 10.720217 0.9075291
-0.22996154 12.815215 0.5495449
-1.0718691 8.188697 -2.9580257
0.44024053 7.864735 -0.2679932
0.89676917 4.6391435 0.3572284
0.719609 1.9885968 1.2634236
-1.0423605 0.9062765 0.32841003
2.1425357 0.7058032 0.72040486
2.4403348 7.352916 0.59211147
-2.0392644 3.2117548 0.17094083
1.0051407 2.747202 -0.18072571
-1.4695841 10.085255 0.6652967
1.6350526 -1.6940699 0.8900728
0.42303482 7.674614 0.9971599
-0.87003773 10.9027605 1.1873424
-0.31743878 3.194454 1.0132245
-1.3051499 -0.41475055 0.6538824
1.3400158 6.6483026 0.6167697
0.52386016 7.2585526 -3.85036
1.6320246 9.641376 0.8889453
0.22840208 13.443489 -0.27100414
1.3292964 5.2064214 1.1337618
-1.3651356 10.44933 0.9011895
-2.5311499 8.032406 0.72531307
-1.8010602 4.912394 0.69709074
-0.95723706 6.928974 1.2651457
1.037864 7.239335 -2.4472036
-0.10844159 2.9617689 0.103146195
-0.18863298 4.697967 0.7072808
1.101319 8.412718 0.5356663
-0.15201947 7.0321264 -3.5130281
-1.7678177 -1.8487517 1.0435921
-0.5740987 12.892716 0.28958783
-1.0986897 1.4589486 1.0753207
-0.47414595 7.022645 -2.979638
-0.83543986 4.9938993 1.3634856
1.1998385 0.40129513 1.2503049
1.8944582 10.101392 0.31521657
2.5226853 -3.999752 0.9391339
1.3688288 3.6728473 0.25999263
-0.9203407 5.891012 0.059735734
1.2527643 1.4080286 0.4244602
1.2618592 -0.31056622 0.564149
-0.32843772 5.7975802 1.0885692
1.4608201 5.937891 0.64325917
1.8814448 8.910071 0.31367648
-1.5394809 -0.106259614 1.4332724
0.6223146 2.1173544 0.5545998
0.3434142 4.794112 -0.6837616
-0.65443057 6.6708684 0.63435036
-1.825493 0.5645465 1.4818424
1.6488589 -1.2825208 0.77149993
0.69038963 7.3355308 1.2136855
-0.84370756 7.840471 0.115692236
2.9411733 -4.589468 0.2989359
-1.1527238 9.883751 0.47648093
-1.7124008 2.2240357 0.3232667
-0.19093402 10.520404 1.3525258
0.5321023 1.9463536 -0.17654087
-1.398856 5.438194 0.7375464
-0.32661307 7.070269 0.35055315
0.41631716 1.4529692 0.37121084
0.60795826 10.549944 0.8833856
-1.3440571 1.7441657 0.9073023
0.8739887 2.071826 -0.37973163
-0.8480747 6.562691 -0.00957136
2.7949617 -4.4269085 -0.38005236
0.08329365 3.9379482 1.437178
-0.36433387 6.9416986 0.7258465
0.044609938 12.174275 -0.038783822
0.5387681 1.5471323 -0.003867303
-0.48621333 6.373311 -0.21810722
-1.6535628 1.3464088 0.17291236
0.5769516 12.906927 0.22449866
0.36453873 4.981165 1.3409901
1.1024449 0.9627279 -0.26317778
0.65726006 10.34343 0.28587136
-0.2022689 13.660459 0.7061949
-1.639302 2.3017197 1.1326606
-1.430541 1.9254806 0.486392
0.73212206 9.369482 0.3367185
-1.2217404 6.2388372 0.970659
-0.12673102 7.304106 -3.1157522
-2.44912 7.332441 -1.0620191
0.34606227 5.4580936 1.2648097
-1.244113 0.63110805 0.1805268
-0.4920327 7.2773123 -4.1609154
-0.5150243 6.780981 0.23229954
0.8843711 4.2143803 -0.55924284
-0.18810749 7.7385597 1.1933347
1.1093835 8.679707 -0.016604181
0.8123918 6.2617755 -0.23912849
0.97068894 4.4903135 1.496205
-1.3309517 4.25056 0.7013421
0.7722786 3.126947 0.46586275
0.028013676 5.8080816 0.51169956
0.03697653 4.2218437 -0.30855137
0.29843447 6.275823 0.8265969
0.5535868 3.0206676 1.300842
-1.2221128 3.3418233 1.4500111
-1.354122 3.5972736 -0.05646182
1.1936232 7.8203406 0.91071635
-0.04139772 3.6612701 0.4298271
-0.13833962 8.310819 -2.5347693
0.21734184 7.6670365 1.7174891
0.32152766 5.5430994 -0.083438314
0.6273352 7.7389107 1.296901
0.2421699 13.564666 0.13507152
0.52543104 6.8183594 -3.2651772
1.8283044 0.054478772 1.4179876
-0.5033192 6.1691284 1.8281006
-1.2297593 5.5572877 1.0525572
-1.6882628 1.4958856 -0.22317351
-1.1853566 9.512501 0.36276287
1.6632031 8.665028 1.076396
-2.608921 7.673184 0.6057744
-0.85718584 11.043976 0.75036865
0.61943144 4.614389 1.3176845
-2.1545904 0.8098736 0.9111963
-0.5223347 5.705633 0.036801517
-1.3357869 5.8672724 0.7811206
2.2312546 -1.2059846 1.2130989
-0.59260887 2.1289883 0.7952156
-0.22292545 6.8572454 1.1403525
-0.81121236 5.222821 0.14340961
0.09588207 8.172125 -3.4990017
-0.7866113 7.427901 0.31375247
-1.2244292 2.7332575 1.3050642
-0.9269795 7.492584 -2.502983
-0.7563064 9.579085 0.9687573
0.002449265 10.318312 1.029405
-1.8315111 4.5768723 0.8697934
-0.43465558 7.002272 -0.4742399
-0.0020448219 10.424084 0.5839789
-0.20278281 6.8773193 -3.1837811
-1.5613406 3.5031123 -0.3649232
-1.6510665 1.926793 1.1437339
-2.359358 -0.69419044 0.85702676
-1.009719 1.0490589 1.0933334
0.14336517 9.331906 0.9178882
-0.41636863 10.926109 0.19501218
0.62517685 7.687939 0.04240437
0.0608354 13.216164 -0.029942852
-2.1360567 3.0968785 0.5291412
0.06861757 8.300082 -3.878843
-1.5810688 7.695162 0.19107325
-1.402431 5.0055103 -0.33161697
-0.37007153 12.403759 0.48777187
1.2689201 3.4212663 0.8599327
-2.044454 2.5214849 -0.01491265
-0.94801915 4.0413227 0.5089667
1.1916938 5.6708217 0.5012983
-1.1050563 9.875213 0.88368297
-1.1484858 8.238866 1.2397835
0.06971079 3.4375007 -0.43065172
-0.87087584 13.3953085 0.5850395
-1.0424992 5.785816 1.5518433
0.8178765 1.6313175 -0.26251298
-0.025167203 9.115627 1.2099117
-1.1255594 4.729373 1.2032994
-1.7698948 7.5489798 0.6577306
1.1635163 8.251068 0.93681437
-1.2882828 6.004918 1.4045179
-1.0126188 4.7232785 -0.21936655
0.61445284 8.144788 1.3315909
0.20369798 13.16832 0.3586175
-0.45059493 5.0275536 -0.001981507
-1.1758046 9.779219 1.2393734
-1.315146 6.562828 0.4114341
0.795641 9.732765 0.08382303
1.5044609 3.1174357 -0.34773022
-1.3450862 8.285328 0.8939772
0.34991294 10.624771 0.44203082
0.54146785 1.1119345 0.23640051
-1.5667746 1.2919986 1.3667169
2.2934456 8.406391 1.015044
-0.05836463 9.574661 -0.079254456
1.0343589 7.1756105 0.5401993
-0.058818653 7.5142536 1.5344946
2.0168185 -0.39786115 0.43085077
2.2575536 -1.4095005 0.83519894
1.3953469 2.8925712 -0.023676286
-2.5605886 9.637536 0.73005044
-1.418271 10.080416 0.28247398
-0.9041267 7.3127 1.5478548
-0.8300048 3.8515139 1.1976371
-2.2468 0.4469464 0.34366268
-0.017891418 12.449098 0.68891
0.0016954503 9.750416 0.36000115
-1.358331 7.8655314 -2.7675054
-1.523708 0.44773057 0.9421051
-0.28809902 6.651794 -0.56809866
-0.5843798 2.4787796 -0.123935595
-1.9288764 0.45432684 1.0910878
0.25037903 7.519865 -0.0397079
-0.74505746 10.079274 0.852815
-1.7849967 1.0600822 1.2188116
-2.484469 7.528927 0.24947615
1.0159926 7.037652 1.2730227
-0.45004728 11.763124 0.70040435
0.6463483 5.2609468 1.6882887
-0.4733307 2.908504 0.38281956
0.73950106 7.0369353 -3.0513847
-0.35333046 2.5824277 0.15167184
1.9570131 1.4370135 0.23508742
0.3365817 1.8476253 0.19190054
2.3461852 9.06832 0.8904004
-0.13796102 4.903314 -0.69385004
1.6906937 2.1038902 0.9576261
0.04115406 7.368124 -2.6977994
-2.6017897 7.659723 -0.3420471
-1.3773068 7.4977303 0.45910183
-0.73044217 12.053304 -0.3402027
-0.9916775 10.607309 0.9376225
-1.3527862 -0.2975966 1.1938101
1.9573451 7.1576037 -0.59177923
1.5361934 0.65161747 1.1244571
-0.5327001 7.3741417 0.6276406
0.9107463 7.148894 -0.17144723
0.25590786 5.3069367 1.633149
0.58652425 8.100853 0.07889764
-0.014249661 4.760761 1.4113718
-2.1120028 0.82882273 0.15086815
-1.0051907 2.2917342 1.3175616
-1.9752935 -0.655582 0.9427703
-0.9484662 3.556326 0.89506114
-0.26911503 8.078572 0.8434866
-0.37894627 8.5033865 1.1161768
-1.7369082 10.5698395 1.1328828
0.16992891 7.465819 -3.3365924
0.29113317 8.965092 0.9053659
2.0514839 -3.019521 0.85508907
0.7251954 3.8192434 1.1240225
0.50417644 6.245196 0.084226996
-1.9941288 3.6223242 0.12118073
-2.7165928 7.351482 -0.45119673
-1.8625828 1.4171555 0.4897607
0.9293221 8.777181 0.6641791
0.8921269 5.5930657 1.5964828
1.1018462 0.030552117 1.0770295
-1.1489196 3.2233264 0.052461315
-1.410848 6.7024364 1.1989315
-1.9428844 10.394686 0.48663646
-1.3977017 7.286911 -3.258163
0.010038009 9.547876 1.2537193
-0.70890486 12.833197 -0.38723844
-1.5427012 0.96716106 0.19650392
-1.0387262 6.585604 1.106455
0.085073255 5.6864085 1.6522417
0.89957213 7.255745 1.6275288
2.1088667 7.209114 -0.18751237
1.2899616 0.06444383 0.5999989
-0.18689065 11.654523 -0.6617494
-0.089616165 3.6541595 -0.14170524
-0.21275032 6.1499324 0.3722656
0.26836106 7.2319174 0.5715467
1.2310485 5.2789125 0.70940864
-2.0409696 8.554568 0.7633854
-0.4878373 13.173275 -0.4181653
-1.4597466 5.606959 0.36486623
0.831048 3.0028446 0.061267097
1.4210914 2.7161713 1.101006
-0.50686896 7.6325436 -0.015752701
0.4658769 13.2239685 -0.03585795
-0.15449108 8.288175 1.6037333
-1.5540022 3.4268253 1.2181805
1.2419152 9.76851 0.18559964
1.9096274 -0.7644251 0.33108294
-0.87592316 6.9883156 0.0527407
-0.5776223 11.393403 0.632862
-1.9645112 9.401428 0.5556129
-2.6053486 8.982969 0.7644626
0.23565759 7.26586 -0.41439065
1.0170859 7.8390183 1.3161607
-0.3331301 7.4440937 0.28319478
-0.63643634 4.791782 1.0816023
0.9914083 5.2468686 0.02432549
-1.1117779 2.6741657 0.5395353
-0.93474084 12.713163 0.33010614
-1.1298393 4.2658496 -0.46503708
1.1748469 3.0908194 0.23640315
0.34211668 1.8015447 0.5938725
0.84329766 7.629983 0.96005934
-2.1418836 7.1468725 -1.104756
2.3994377 -3.9886508 0.2461983
-1.7641363 7.2034674 0.82253426
2.7666988 7.383122 0.4542077
-0.7917446 1.323813 0.8402251
-2.4682312 -4.6067734 1.4056464
1.4402838 6.3068953 0.8210252
-1.6339989 -0.47909382 0.9369762
-0.599326 12.680185 0.6128206
0.8546568 2.8358684 1.110886
-2.670037 7.130157 -0.16477284
-1.4455411 8.763849 0.88897264
0.69065917 9.835878 0.48113662
-2.1784034 10.090892 0.38142782
0.075352356 9.38633 1.6063998
-0.7804193 8.379272 1.2023935
-2.5130398 -3.8998299 0.7516926
-1.5784286 6.425878 0.99360985
1.4916062 5.5040565 0.84929794
0.018098462 10.871372 0.6083247
-0.9241881 3.5751057 -0.12146474
0.5290628 2.4833949 0.58647394
-1.8876697 -1.3193767 1.5254165
-0.36742088 13.594601 -0.32267714
1.9892644 10.367266 0.5740786
-1.0958436 5.849879 0.41589364
1.0481116 0.72594875 1.1342883
0.17741281 4.855736 0.66407
-1.3983203 7.805162 1.2424917
-2.1588037 7.1576867 -0.7148698
1.3521471 0.88575476 0.072670266
-0.16093308 8.795598 0.48046926
0.23978259 2.467418 1.0261968
-1.0021907 9.059324 1.2898256
0.047100395 3.9813707 0.048589878
-0.7529261 5.356612 -0.531492
-1.7828691 9.767406 1.3378296
-0.12228703 8.14616 1.2355793
-0.82707274 4.3774767 -0.17308168
0.18981402 12.80191 0.5113373
2.7122397 7.362051 0.025477294
-2.2152078 0.041856747 0.10808179
0.8387713 8.0639715 1.6434615
0.7073684 2.765499 0.31579277
0.50432384 5.4880586 0.56606406
-0.5662 3.2324586 1.2836901
0.35937497 8.35887 -3.5970328
-0.6628161 5.8255014 1.3901774
0.6122987 6.5342336 0.729627
-0.26796558 7.8389244 0.26712903
-1.9855686 4.6699543 0.4721899
2.2398043 8.008419 0.7788518
1.8611999 8.85993 0.7849688
1.209784 3.7640862 1.2722634
-0.17800477 11.991999 -0.31253463
-1.8291376 9.879048 0.9858472
-0.17156115 5.564975 0.80645645
1.0790621 1.662049 0.08350209
-0.3435237 2.9137669 0.7725825
-1.1188898 0.5930697 0.9498054
1.4088191 7.0615153 0.6150509
-0.78162843 7.2986407 -3.550217
0.0022101055 7.005956 -2.880006
0.8657237 7.813485 -3.335493
1.8090526 1.4345732 0.8413353
-0.47378358 3.5491183 0.3864436
-0.68123215 9.138905 -0.17470242
0.57586294 7.080752 1.5843198
-0.22237103 12.087594 0.69637513
0.09167431 12.468351 0.3187269
0.7418637 5.6672597 1.2764146
-2.1349516 -1.0053527 1.50652
-0.36477357 6.566764 0.91679114
-0.13543053 8.198459 0.09880378
-0.639932 7.3571825 -2.8105528
-0.60769284 8.739818 1.7079755
0.18929951 5.931998 0.13762015
-0.7667341 9.147879 0.95025176
-1.1886771 8.021057 0.1820049
-1.6167419 0.7447157 1.2242956
-1.8708377 4.687741 0.091555595
0.18616463 8.642567 0.6016441
0.47809824 12.8520775 -0.11194144
-0.94368994 6.9570713 -3.6840894
-0.80356073 5.5119796 -0.12762839
-1.9587809 1.3796158 1.2712322
-1.7440822 2.9324696 0.39939797
-2.671844 8.3426 0.58478457
1.152221 4.85225 1.353757
0.33504173 10.258223 0.73998374
1.7380854 10.49503 0.8368916
-2.8607106 7.5444984 0.35781378
-0.9663423 4.853374 0.86517775
0.97750527 10.0755415 0.26117265
-1.9731911 -0.98488224 0.7328397
1.2326835 6.776678 0.304465
1.0642319 10.794987 0.77775705
0.68384445 8.213139 0.46115142
1.240076 3.4062293 1.2296724
1.5192606 3.1410651 1.0339422
0.027343037 8.363502 0.92672986
-0.17354798 7.5551996 -4.265314
-2.2804396 1.9960638 0.49419633
-2.7986083 -4.5440893 -0.7152425
-0.7984406 9.050268 1.6454475
-2.204552 -2.3734913 1.2930269
0.9288278 10.069734 1.4769237
-2.086692 3.9103174 0.4285203
-0.19995919 13.000738 1.2615162
0.9474081 0.35583615 0.88566333
-1.9819536 -3.9345217 0.8287008
1.4117719 4.738206 -0.18359785
-2.541634 7.5408645 -0.74058115
-2.1677763 1.6800961 0.29356736
-1.5333805 3.1858895 0.7216724
0.55984867 4.544632 1.6997709
-0.87238395 3.4144313 1.3406017
-2.284965 0.030796332 0.90899366
-0.47628516 8.308536 1.4244269
2.1630788 8.69738 0.5986179
0.9227887 5.085145 -0.42707115
-1.3211738 6.6912313 0.8119814
-0.13909005 13.778039 0.33190286
1.1055354 4.2214375 0.90314496
0.014845534 5.621509 -0.65483063
-1.4743987 2.5036836 0.82984436
1.1110249 4.9617696 0.92872196
1.3970798 10.239152 0.7368535
-0.7762245 5.5822086 0.34136486
1.0325059 8.7548485 1.4050453
-1.5953846 8.588872 0.17263144
-0.9483751 8.263983 0.8725852
-0.41557476 2.2496936 0.4854886
-1.1893082 5.58909 0.039139796
0.3892782 2.9122975 0.54988045
-0.5980038 6.4096317 0.295739
1.550888 8.9793625 0.51388526
0.1916365 3.5607288 1.4651443
0.6109143 9.960939 0.8674882
-0.118896306 7.3158484 0.6365396
0.09352274 7.92881 0.9035871
-2.013404 -0.58909476 1.5937998
-1.2321268 0.2952994 0.3649193
0.051331412 11.467138 0.055807557
-1.0258871 3.636399 0.57112044
1.2601659 7.3190904 -2.1595564
0.022284908 7.7473335 -2.6230896
0.2190156 9.932232 1.0985562
-1.5039501 5.359518 -0.20954576
1.394017 9.8274355 0.568638
0.46555153 5.936769 1.0082228
0.6470068 5.278992 1.3284323
-1.1076665 10.227609 1.1322049
1.2461627 -0.83886856 0.26280692
-2.1465683 -4.5881643 0.93148494
-0.37659618 12.977145 0.91041076
-1.1017599 6.7881045 -0.27645946
0.09598029 5.2026157 -0.67380965
0.60722893 1.1035289 0.7018263
0.12152152 8.43323 -0.18583295
-1.5537995 2.251649 -0.2976343
1.2697973 4.9004807 0.54751635
0.19122908 6.5656624 0.5344409
0.14882024 9.064602 0.5300112
0.49803606 5.910368 -0.16028999
1.9688327 1.9021021 0.36561581
-1.4106872 7.166276 -2.8891551
1.7499081 1.0840816 1.102179
1.1398976 7.6328382 -2.2486315
0.13612267 4.1849847 1.1122993
0.42036644 9.177259 0.21211685
0.87450033 -0.7500798 0.5873292
0.52162516 13.321306 0.33587977
2.0797644 -3.9125326 0.9980893
-0.66556704 2.4586906 1.1250937
0.49523854 7.016721 1.2099327
2.1583176 7.1728597 -0.9627851
-0.44714096 2.4912665 0.8472111
-1.0404322 2.8734422 0.9360264
0.9246094 4.837278 -0.08307344
-0.8508754 8.127195 1.5728555
1.0292083 9.596815 0.44901595
-0.14205793 7.8968782 1.5889142
0.4078059 6.854306 -2.8199902
0.4236551 12.708082 0.87022763
-0.037771758 8.588264 0.15362272
1.0582012 3.782385 0.52947646
1.171297 5.7049117 0.0045164507
-1.8589847 0.5806079 0.6082362
-1.0572873 7.29948 0.58100414
0.48856735 4.410971 -0.5559501
-0.49039686 10.047845 1.1680601
-1.8234824 2.4758232 0.5701185
0.9083298 2.2931159 1.2803984
1.1325185 0.19636111 0.020276561
2.0397456 7.5074105 -0.8562527
-2.2940323 0.08725506 0.51898926
-2.1742392 2.691202 0.6170026
1.1738435 1.4648902 0.83014053
-1.1435581 4.072183 1.5693
0.646608 3.6079562 0.07965872
-0.5104297 3.9231572 -0.5736768
-0.059047725 13.665106 -0.08203724
-0.83336174 3.1490288 -0.05494089
1.630958 -0.8657936 1.4494054
-2.8264759 7.460947 -0.04939539
-2.080973 -1.7042997 1.4208627
-1.6022282 6.1846623 -0.07715224
-0.05556003 3.847195 -0.5197086
1.4284198 8.557184 0.2548735
-1.3051325 4.724598 0.57122374
2.0214226 -1.1425695 0.6310906
1.0876915 6.6461797 1.3131739
-1.6654032 4.0697536 0.45439228
-1.5041842 8.925574 1.2934482
1.6589756 9.754325 0.27359432
-0.53497404 8.0598 1.1026443
0.34382272 9.219455 1.3001435
-0.57237524 8.39811 -3.6945696
0.56018543 3.4375203 1.4650989
-1.1504802 9.783133 0.08184977
2.2553163 -1.8422171 0.784026
0.40123543 2.5185874 0.23010743
-0.3164197 7.5512247 -2.5500133
-0.104485616 4.8180275 0.018716026
-1.1517322 10.13156 1.51978
0.048250914 7.606747 0.30330935
0.5441189 12.560542 0.46461815
0.5434118 7.218741 0.02804284
1.708435 3.9876575 0.775832
-0.6154095 8.1015215 -3.4356358
1.2486258 2.2707791 0.301686
-0.850285 13.156288 0.9484662
-1.4656953 10.047751 1.0440978
-0.2994231 7.205461 -2.697533
-1.3781877 2.4215593 1.3376659
-1.078815 3.2038598 0.6413022
-0.25129816 11.420482 0.8106346
1.2042731 6.2352524 1.137081
-0.3007624 13.319966 -0.053529542
1.0550026 9.426622 0.037071403
0.85771406 1.6657057 1.1254379
0.9076603 5.0702605 0.36095944
-1.3563733 2.025832 1.3593246
-0.59346056 3.5226798 1.0084388
0.92732066 4.6041703 1.0585858
0.7377863 1.7317734 0.7539663
-1.8982241 3.2848704 0.7432914
0.84724295 5.3180437 0.6591207
0.93094295 10.705435 1.1626351
-2.3169422 7.133624 -0.3251257
-2.2500956 2.3118076 0.7403334
-0.8763017 4.470426 0.9805516
-1.0382792 7.749608 0.51292443
1.0912148 6.810904 -0.06909836
-1.6153804 4.6405005 -0.23794965
0.653224 9.36867 -0.067399085
1.3814471 7.5720553 1.1712475
1.5880418 0.7582151 0.38224143
-0.50859565 5.453873 1.8200718
-1.9559855 -0.504474 0.5726778
0.059859145 4.598502 0.3600425
0.8835588 8.504059 0.23431832
0.336438 8.780935 0.24020319
0.14127782 7.0333734 1.3561758
-0.15982658 6.00581 0.024904888
-0.33618027 9.525873 0.23898435
1.4914771 7.458472 0.79266316
0.47859377 2.7712164 0.93495065
0.28132185 5.142692 -0.09324599
-0.3727636 8.863313 0.121586226
-1.4943738 2.870315 0.016903713
1.0358806 6.494333 0.89128083
-1.0292221 5.6542563 0.6952662
-1.2422681 5.9947557 -0.2119209
0.21044375 7.230687 1.7115496
0.39427805 9.086643 1.6714811
1.334523 8.016534 1.2585278
0.7251973 9.59311 0.8104851
-0.20862842 12.403147 -0.40318376
1.4907432 0.2828043 -0.20159243
-1.0247469 8.493383 -0.2064647
0.40160093 9.63755 0.31689867
-0.40229 8.09843 -3.069928
-1.6948833 9.772966 0.6209757
-0.42403176 9.867835 0.8228541
-0.69399965 7.862893 -0.2786339
1.006469 9.06317 -0.04419949
-0.21766412 12.691534 0.1714981
-0.23407018 4.89402 1.0797613
-0.14403692 7.2670617 1.2596776
-0.40575626 4.6099057 -0.67091346
-1.9362365 -4.6226993 1.3307483
-1.556253 9.733714 0.22142223
0.07388057 13.2132225 1.117989
-0.7325818 2.7846882 0.085545085
-1.2477227 4.3790526 -0.097293414
-1.1528556 10.719661 0.5822704
-0.54263407 6.9846416 -3.4198549
-1.749007 3.8291304 -0.21394181
-1.7334443 9.075314 0.7081093
1.3876349 9.891342 0.98176694
-0.75276965 7.051394 0.42396954
-1.4705881 2.6319942 0.43168542
0.519928 3.2478833 0.19598782
0.11008211 2.8048353 0.82918745
0.7218467 6.1879315 0.8335811
-0.9355524 4.143734 0.1305997
-0.9611263 8.936601 0.57110655
-0.84938973 13.163543 -0.09138778
-1.4425316 1.11988 0.56102675
-1.1271594 5.168787 -0.07465345
1.5993401 4.605189 0.15052101
-1.7604294 0.40043348 -0.16076691
0.061262082 7.6983933 -2.2551165
1.3251227 6.290943 0.38033122
-0.41976574 4.913172 1.4418054
0.42512324 1.4538951 0.7457701
0.047778282 3.417491 1.1167488
-1.0372229 7.677741 -0.24672745
0.41657034 10.279452 1.1359172
0.021647831 6.790016 -3.8365266
0.21885166 5.5071883 0.29793775
0.7025741 10.935454 0.8732733
1.1158248 2.4731936 -0.46345666
1.9186708 -0.062208887 0.27928996
-1.0101215 0.9955555 0.7017913
-1.6019987 3.0215998 -0.33836436
1.6132509 -0.82060695 0.077926345
-2.60758 8.502661 0.23017243
-0.8087329 12.42855 -0.13101359
-0.9426248 7.948203 1.1850979
0.5113113 7.883599 1.630593
-1.1361002 2.9203513 -0.2966171
-0.5781049 1.8708844 0.5070282
-2.6215935 7.8054605 0.06258316
-2.187727 0.42460757 0.75700647
0.41193882 6.88804 -3.6657724
0.17026363 12.073526 0.70933217
0.8129803 9.338538 1.6210178
1.9296597 7.436535 -1.2338659
-0.4604427 7.6291714 0.9478873
0.5099036 5.669107 1.6317048
-0.8348049 13.486289 0.20748045
0.05724206 7.2070704 0.23500839
-0.97701764 3.0322242 1.3760751
0.13579667 2.6154678 -0.13690259
1.7271678 1.3798437 -0.074586846
-0.43522525 5.3901606 -0.21040627
-1.4034646 7.88092 -0.14902891
-1.7030461 -1.6128826 1.3529503
-0.92040986 7.3329635 -3.949854
2.1645951 9.28358 0.22385766
-0.2892366 5.8933616 -0.6332175
0.104525074 7.642709 -2.9985776
0.6608974 3.9063113 0.42884713
1.2303722 5.291711 0.31835523
2.1190467 9.80381 0.95276636
1.9652076 -1.7154996 1.0289509
0.037792478 6.8211756 1.6808699
0.5130404 8.731031 1.6065502
1.437511 2.694812 -0.3895714
2.2808464 -2.46233 1.1144066
-1.7709222 1.7704872 0.26636675
-1.1506186 7.837389 -3.1699402
-1.2724904 7.2213306 1.4581842
-1.4892932 0.40818062 1.4298551
-0.16789602 12.306911 1.1147733
-0.36375654 7.197847 -3.7538154
2.0784035 9.689849 0.28432596
-1.14941 7.158414 1.0316118
-0.033564206 12.067161 0.3646195
-1.4876895 0.3169529 0.08277061
-0.1793216 7.516518 -3.5252633
2.57204 7.38984 -0.36661944
1.1711048 1.7712477 -0.34956926
-2.236008 8.2378435 0.5178207
-1.3946003 8.80202 0.47223774
0.14853042 2.4813912 0.6135927
0.590305 6.047496 1.341569
-0.9877011 3.72188 1.5494783
0.24636924 8.329729 1.3292671
-1.0439881 1.9189725 0.69003314
1.9504405 0.6621445 0.38963124
0.9091186 6.8571405 1.6242516
2.4993465 8.67876 0.839362
-1.3457129 9.234773 1.4124571
0.75037193 10.668992 0.547966
-1.3943667 7.113399 0.76413924
-0.7808039 8.691916 0.8886515
-1.7269524 3.335284 0.38107455
-1.2291842 6.970178 0.4326586
2.6598628 -3.9939878 0.56940824
0.25946745 6.819995 -0.47795114
2.2276099 -1.0089216 0.9007954
-2.63606 -4.254875 0.7118208
-0.3053973 8.542268 0.74736905
-0.79988796 3.174825 0.96663654
-2.0738606 -3.4633398 1.224887
-1.8224404 8.819657 1.0390706
-0.8465932 2.6686568 1.3642883
2.031333 -2.7198007 1.1880615
0.2055362 3.619412 0.08763975
0.7544262 2.5268142 -0.4519087
1.5594954 1.4198934 1.1378475
0.41904593 9.37063 0.6124385
-0.32754835 4.520606 0.35721678
-1.703734 4.900972 1.1047504
-1.3116128 1.1293286 1.2529545
2.699815 -4.624282 -0.024579776
-0.26022023 3.2302434 0.4755322
0.25814667 3.870197 -0.28213632
0.6882007 7.9161353 -3.6734998
-1.9515039 -0.12801263 1.5472517
0.2667896 8.324336 0.2597936
-1.1563623 4.998317 0.2863721
0.36288378 12.372524 0.70997626
-2.6668396 8.775106 0.48159626
0.8303983 1.3821495 0.60657346
1.3407296 0.78283286 0.84125257
0.70543134 10.45505 1.411466
2.0298827 -0.11076518 0.71206176
-0.30841276 7.527998 -2.193317
-0.5317407 4.1375732 0.4526648
1.9202697 2.312661 0.34288362
-1.829635 10.19593 1.2668707
0.24179131 6.175533 0.4461207
0.71976006 5.4827456 -0.45046416
0.8410049 4.8574915 0.694321
-0.80636126 12.727855 0.9891558
0.76573366 6.7699614 1.0142322
-0.39755407 9.071639 1.6293423
-0.32245868 6.790668 -2.5827816
-1.0029539 4.4313645 0.63234925
1.4268059 -1.3323413 1.0889544
0.014502707 6.582048 0.94137514
1.2584707 3.778382 -0.078614295
-1.3296115 9.612181 0.7359756
-1.153783 7.053566 -3.4157588
-0.58889747 12.5127125 0.17716411
-1.8399599 0.7832255 -0.16611867
-0.6861009 8.786933 1.2905389
0.14035514 3.5948856 0.76995546
0.41290906 8.119647 1.0268534
-0.09902087 8.266692 -3.1903522
-0.24662486 7.3345685 -0.45871562
0.38037473 3.5861928 0.4082721
-0.85849327 7.413832 -0.032637447
1.7619168 9.925028 1.1864545
0.43751907 7.4766726 0.31885713
-0.44690374 12.181516 -0.15235016
-1.4217327 2.8684201 0.82781506
-0.65386623 6.9528437 -2.5459225
0.7503032 7.0978775 -3.5099015
0.76093274 4.713262 -0.5938879
1.7522252 -0.62763935 1.1041636
-1.087348 3.757601 0.17711434
-1.1365317 5.4663777 -0.34239805
-1.0774 7.376486 -2.9776673
-0.2845229 3.8991866 0.65921783
-0.4358997 13.716922 0.08681336
0.54717034 8.974759 0.5859843
-1.9463323 -0.12184648 0.42894113
0.8991926 5.933825 1.0580201
-0.539088 6.6041975 -3.25208
0.8019333 -0.3233217 0.51724136
1.4175959 8.9807625 0.14469655
-1.3331993 3.8841016 0.40513414
-0.008164686 12.809197 0.88541096
0.15535098 7.020752 -3.3046656
-0.9578778 13.117583 0.28286803
0.36376372 12.172385 0.28434807
-1.2692648 -0.10437448 0.89028674
0.6512432 5.2005672 -0.17457719
-2.3114448 -3.796018 1.0909598
0.8293691 3.9924254 0.76459575
1.0301363 5.221115 1.4538946
1.3351111 10.007128 1.3776896
-1.3601433 2.4321551 0.06813978
-2.0092807 1.5590274 -0.014692221
1.9420446 -1.4643832 1.4053935
0.7052122 0.37425575 0.5372254
0.20236745 11.968611 -0.4477543
2.4141555 -3.694506 0.57769257
1.4320986 -0.12794578 -0.11658245
-0.35661164 8.067709 -0.30795133
1.6678619 -0.12285481 0.5983373
-1.1738551 2.1807024 -0.27327642
0.15095347 6.2308736 1.2499986
-1.5294255 5.736316 -0.15816751
-0.92289966 9.470743 -0.058251735
-0.7264264 1.7905331 0.15791945
-0.12771207 8.506021 -3.619753
0.75748 1.2236108 -0.13897848
1.5445346 5.049326 0.12923771
-1.1641741 2.0474312 0.14482005
0.14372613 4.557614 1.7680919
1.4538385 7.514409 -1.9572527
1.695005 7.4801264 -1.56832
1.8092687 7.186814 -0.9846521
0.2307401 4.1211605 -0.6458064
1.0903563 5.4691205 -0.2775052
-0.7370146 10.8116 0.47275484
1.1114259 3.146949 -0.19667721
-0.71254873 6.579495 -0.42531064
-0.18319468 7.5383945 -3.922598
-0.5423088 2.1777475 0.123246565
-1.3192126 6.2030716 0.54614747
1.6983613 0.6845914 -0.05449342
1.1139024 1.938696 1.2935826
-0.57516456 8.360963 1.7656283
-1.1049267 5.168029 1.5818392
-1.1047947 2.530576 0.98668396
-1.5794374 7.316572 0.07273875
-1.7307119 5.036928 -0.054856434
0.58281773 2.1749136 0.1534801
-1.6822621 8.466109 0.9715044
1.1756835 3.0351477 1.1150094
2.1284022 -3.9531322 0.5859355
-0.5075876 9.526973 -0.09999578
0.39089954 9.587929 1.1120931
1.9008462 0.35862193 1.2110012
2.1400156 8.751455 1.0727246
-1.6685269 6.542633 0.20973483
-0.22037983 11.623201 0.38488787
-0.25334567 6.6215 -3.5813115
-2.7612188 7.984956 0.4129428
-0.78378266 1.7241963 0.8902867
-0.12976496 6.6324987 -0.24179152
-0.88746697 4.801686 0.49093157
-0.08750304 13.410593 -0.4055484
-1.6235625 -0.12912358 0.68743086
0.22144946 6.6601014 -3.1035926
-0.8902024 9.498151 1.326245
-0.8558876 2.1204817 0.39940032
-1.1677606 1.0437803 -0.019428087
-0.45189717 7.344047 -3.296697
-1.3719728 0.89517903 0.9020553
2.512565 8.106842 0.38965392
1.5750707 -0.5833843 0.4123423
0.77206194 6.016009 1.6544238
-0.26390475 11.516928 -0.22420928
-0.52597696 5.953623 -0.26320556
-1.8558576 7.922736 0.54945695
-0.82247865 4.816431 0.07287494
-1.527985 6.048768 1.1312433
1.3886373 7.1378946 1.0755115
-2.271844 1.4738228 1.0073687
-0.3334859 6.8495393 -3.9521282
-0.5375254 13.2815075 0.25600225
0.678202 7.22458 -2.687259
1.0645355 -0.5183085 0.3102353
1.2016399 5.552111 1.2673856
0.75279444 3.2796535 -0.20822445
-1.5077288 8.362831 0.544972
-2.4644072 8.153777 0.14842829
0.14338472 3.2578323 0.36775604
-1.5038201 9.195462 1.0053089
1.2428432 9.121135 0.72815275
0.50476885 6.5142426 -0.41813898
1.1413782 10.391441 1.3291512
-1.2829025 -0.07782167 0.4486934
-2.3326826 -4.5884 0.47339952
-1.0289209 6.537121 1.5140414
1.2975764 2.4367464 -0.08575936
-0.5928447 4.7312016 -0.32250538
1.3811955 0.67218846 -0.28458133
0.30283841 11.006691 0.96718997
1.4623798 1.5309838 -0.2918419
1.431979 -0.9679587 0.9181692
2.3333597 -4.3564434 0.15254895
1.7485313 0.01078057 -0.012212297
0.61112416 4.5433793 0.046661105
0.20552169 7.7544236 -4.1320467
-0.5328279 8.072636 0.075084515
0.19890757 8.100016 1.6966772
-0.47925836 3.872058 1.0341779
-0.96379876 2.4218376 0.17414562
1.720812 0.90338594 0.7213459
0.5465775 7.4608064 1.6080767
1.6683024 4.8141727 0.44034034
1.3126223 2.237421 1.1242999
-0.1329197 7.3995395 -0.0937705
-0.7207471 7.581393 -3.1360986
-2.7036371 -4.2079473 0.30494505
1.6746788 2.8641655 0.7986959
-2.0011005 -4.2403398 1.5420091
0.2058166 7.385892 -4.135063
-1.2876163 -0.65707755 0.9396101
-0.8436433 3.3915 0.2868167
-1.6093946 -0.3893883 0.35927236
0.6404948 6.707815 1.3611436
-1.9137398 5.0783286 0.32087797
-0.33676878 7.967283 -2.6869853
0.83489954 2.4038632 0.24381569
-1.2541077 4.34418 1.0780464
-0.2617525 5.0415106 -0.3397484
-0.73831296 12.062899 0.07921679
1.5188365 3.28025 0.3411231
-1.386451 7.4888306 -0.18215635
-0.85616887 1.2175584 0.38696006
-1.1278079 5.3956137 0.3848029
-0.99650365 6.856146 0.77374387
2.6334097 7.6602535 0.28561062
-0.3175096 5.3625646 -0.631121
-0.03297169 9.469217 0.5772392
-0.33162713 7.107387 -2.3170412
-0.40957025 12.78295 -0.5820422
-1.4084268 1.6846071 0.11709402
-1.1344664 2.799913 0.10541725
-0.604187 5.694237 -0.55929804
-1.6135089 7.6044397 -2.4907508
1.9630594 -2.3030605 1.2561774
-1.634074 4.476457 1.2101862
-2.0825844 2.032731 0.10885453
-0.6500547 12.44144 -0.50842595
-0.6788949 5.8344193 1.7662346
-0.76214325 9.570217 0.30900797
-0.6478584 5.731979 0.72109294
-0.054114822 6.778118 0.1956742
-1.1434033 9.392607 1.0463259
-1.7353345 2.6252992 -0.2653501
1.9310248 -2.0209174 0.7647953
1.7280885 -2.0603817 1.0634178
-0.9246082 7.907957 -2.5600805
0.8197484 3.9603415 -0.22773097
-0.9534201 6.253059 0.33914912
0.5681527 6.9756694 -0.31595966
-0.7296897 9.848033 0.028493313
-0.5935977 9.835356 1.5629554
0.4802493 3.9553075 0.069255576
-0.8570366 6.1906304 -0.107387654
0.9287106 5.3080587 1.051319
0.7210659 10.243448 0.6208604
0.78453153 6.8838778 0.15346356
0.78360474 0.045220096 0.37730172
0.37026948 8.046458 -3.9014423
0.99644494 3.576847 -0.23898105
-1.0365268 8.09711 -0.20535192
0.47302088 2.3439577 -0.26851183
-0.65314215 11.2074585 0.3507894
-1.5812956 5.3271194 1.1427566
-0.67249274 8.315426 -0.24550977
0.35207972 9.607147 -0.046668697
-2.3162992 -0.3074874 0.25101617
-0.11746251 4.3826556 0.011433187
0.41829693 8.367698 -3.107151
1.4007761 -0.12604776 0.8999256
1.7905126 0.3748196 0.15415889
-0.080195725 3.8067963 1.0693345
2.036873 1.0421267 0.8740382
2.0836458 1.0891412 0.4953458
1.4258916 10.127013 0.30988064
-0.35522786 5.7213583 0.4017109
-0.55618715 8.750595 -0.2462808
-0.66960067 3.7509813 0.65679204
-0.55181277 3.2216053 -0.41227284
-1.363214 6.3695664 1.3878415
2.3658404 7.8010674 0.15709138
-0.91922 12.543506 0.64551437
-0.6407928 13.492353 0.86148876
-0.24029493 4.214626 -0.6080459
0.40126252 2.7358897 -0.40523145
1.0939807 2.4465055 0.9119927
1.2876109 5.1057835 -0.20801511
3.071013 -4.573605 -0.1401121
-0.59378725 3.6644568 1.4506929
-1.1979225 3.6203938 1.1443381
1.1434771 4.1447372 1.3226165
-0.8285803 9.7327175 0.6320464
0.32999992 6.8972626 0.24713548
0.584406 8.587082 0.5316
-1.3703547 3.754067 1.467
-0.81655926 2.0863323 1.0733286
0.38414687 7.2753005 0.9270083
0.9646985 9.325812 1.0873082
0.62585723 5.573932 0.93319786
-0.9923512 2.5428958 -0.2202186
-0.67015535 9.446833 1.6475743
1.4221889 4.776384 1.0519397
0.121326946 6.452659 -0.5611099
1.5729498 9.249353 1.2458855
0.89595246 3.5766363 1.3847371
-0.65688187 7.311919 -2.3590884
-2.216794 -0.6834207 0.16127864
-2.2716217 -1.3807384 1.2996047
-0.32735783 6.500904 1.7319785
0.8171157 6.6654234 -0.23570949
1.7642508 3.073818 0.031235993
-1.9450678 3.8608444 0.7939611
1.007739 8.279596 1.3394505
-1.4417126 10.390491 1.3449004
-2.054482 -3.0164783 1.2621748
2.2645493 -1.6474053 1.1906604
-2.9812315 -4.579353 -0.35624307
0.71161145 4.211005 1.5853769
-1.8801507 2.881045 0.81412137
1.94157 2.225909 0.7152237
-0.10834566 9.6488285 0.88942194
0.4664085 6.4263344 1.1217184
0.8217596 8.48503 1.6408244
-1.9600879 4.3331723 0.2601744
-1.1032875 8.652613 1.1765435
0.578619 3.966151 -0.602113
1.4802374 4.367128 -0.123456895
-0.92251337 6.0653806 0.7424748
0.5768628 9.018952 -0.14831963
-0.49179262 3.1910276 0.11870487
1.7206645 0.5392666 0.7823282
1.336086 1.8609339 0.38069394
-0.024380913 8.016513 -4.127445
-0.6034547 4.5657973 0.64990616
0.32020745 10.042612 0.44900495
1.63736 4.1638675 0.11772206
0.975803 7.516617 -0.12380686
1.1249185 1.3447313 -0.33186162
0.20461914 11.765289 0.34593514
0.17768961 8.396297 -2.7974722
-1.747546 10.286769 0.86307025
0.52113444 10.008539 0.10826718
2.190018 9.417654 0.96660537
2.0410647 0.025487518 1.0977694
1.2367637 1.328149 -0.012065809
2.5239463 8.607332 0.4593498
-1.7447817 8.137123 0.8158881
-0.17767537 11.231042 0.40678847
-0.18828775 9.801645 1.5144233
-1.2576823 8.017794 1.5440099
-0.14631715 5.952332 1.3689426
-2.3628023 9.585481 0.3947296
1.0872573 2.8317368 0.48475626
1.2956014 4.089836 0.21719573
0.96169865 1.3167938 1.0652847
0.47011748 7.7383676 -3.1537135
0.18799211 4.830807 1.0431013
-0.22574697 3.2477975 -0.24114649
0.5971984 8.14604 -3.3957803
-0.16803207 3.4251177 0.13730693
-0.13111374 13.428965 0.31970957
-1.2745405 4.632106 -0.47167984
1.9580742 -1.0461113 1.4254811
-0.82998973 9.918566 1.2296412
0.15007146 8.091386 -2.4387915
-1.9784583 -4.22893 1.1052276
-0.7056197 6.4979005 1.7475632
-1.8590853 -0.8303007 1.2450145
1.3890833 3.5710495 -0.39579698
-1.6445309 -1.4113058 1.0094682
2.250663 -2.7268574 0.8325884
-2.369992 9.19397 1.1792339
0.849712 1.9282576 0.024316717
0.05036824 7.065426 0.9500823
1.5587329 5.0603323 0.81244624
-2.5320618 9.241665 0.45417467
-0.48765355 4.2044954 0.08332447
2.5988977 -4.333414 0.91810644
0.99226624 4.229222 0.45941225
0.0153224245 7.4989905 0.973543
-1.7323487 3.1347651 1.109283
1.8768431 2.6142035 0.5888878
1.4504485 4.0155296 1.0801843
0.7931812 4.235114 1.134607
-0.02284204 4.517082 1.0518196
-0.23414735 7.9546857 -2.2887611
1.1464324 7.592165 -2.6159506
0.73982745 4.432944 0.7200158
-2.3331738 -0.37842876 1.0184021
-2.2368078 0.78610456 0.518675
-0.112981826 5.3870707 0.44410583
-0.49326557 6.842664 1.8127148
2.2674391 7.730211 0.5259742
2.5492532 -4.5962415 -0.6110608
-0.7466226 5.093173 -0.24450962
-0.44625473 9.498203 0.6608254
-1.8378279 -0.7295554 0.26567847
-0.24719627 4.609185 1.774644
-2.7576313 8.594471 0.885479
1.3727124 0.4981506 0.1588785
-2.6332037 -4.6034946 0.12901092
-2.4906268 -4.2060447 1.1003075
0.08708089 7.215291 -3.709833
-1.6385393 3.6768818 0.19139025
-0.97826564 7.745962 1.5337801
-0.6894842 12.343513 0.85945076
-1.4714576 4.0295606 0.034786884
1.5199805 1.2243131 0.20812172
0.34174314 7.0937433 -2.5350885
-2.6356936 9.3019905 0.9139392
0.0022211603 3.2004924 0.7443645
-2.4406767 7.1677704 0.10044389
-0.001362345 13.17119 0.69812274
-0.48217934 10.529967 0.2483549
1.8274212 1.7856858 0.014660873
1.1679232 6.0884676 -0.043860078
-1.3469168 4.808161 -0.00941635
-1.5454689 7.4299893 1.1495833
-1.5768033 9.408528 0.5130156
0.567035 5.325446 0.20734328
-0.8002688 8.392866 -3.3407059
0.65874577 8.538217 1.2573001
0.69369537 3.3802044 -0.5897959
-0.87103117 8.530459 0.4786966
0.36694756 13.063125 0.9380912
1.3131331 7.428064 0.36172828
-0.3135106 5.310796 1.096197
0.27272478 7.428274 1.3107553
-0.17995082 4.97722 0.3937087
-1.4094522 5.077946 1.3754823
-0.9988201 5.8393073 1.1057479
0.85485786 0.717151 0.7354411
1.9559581 8.395042 0.8684166
0.24810696 4.5380373 -0.26688915
0.8675795 3.2442698 1.228346
1.5748466 2.0554633 0.1538429
-1.1229486 5.1613994 1.1227736
0.18392776 12.309602 -0.5551591
0.035942793 7.9948487 0.48300263
1.8520213 3.0448494 0.4592136
-1.2400118 2.1458664 0.9658977
0.36960962 3.1768503 -0.5408397
-0.023286168 5.562171 1.2432988
-0.18842404 11.818271 0.04254261
2.3750944 7.428564 -0.72356266
1.0973566 5.9122763 1.4010518
0.24984631 2.7692127 1.2720809
-0.56646687 8.831604 0.5181289
-0.37960395 10.207886 1.467142
-1.3090974 9.170484 0.680521
-0.8232146 7.749796 -3.5108008
-0.035778984 8.594912 1.2977743
-1.3293962 10.751922 1.200734
-1.1467009 5.1149664 0.6673669
1.090868 8.965859 1.0497224
-0.7223201 10.445541 0.6615117
-0.53167737 4.8896427 0.35242674
1.13212 2.6549063 0.18490909
-1.67409 4.172369 0.91139925
-0.17951277 6.466201 1.3411711
-0.6367651 8.444189 -3.0130944
-1.576376 -0.71806026 0.5950855
1.5402853 5.597938 0.41095963
0.44188905 7.801382 -2.4339287
1.5088243 0.23976013 1.3107152
1.0761889 2.6079488 1.2523088
0.17753206 8.587426 1.6831775
2.201614 8.126938 0.22507675
-1.7780584 4.27969 -0.10749305
-1.4501636 4.734268 1.3922026
-1.6878877 5.6724105 0.8894591
0.54735553 7.570527 -3.4926002
1.7960975 3.6260042 0.6403394
0.8036258 2.7621708 0.71681297
-0.8602313 8.342852 0.11274685
0.10248174 8.548853 -3.264891
0.6402537 3.1268601 0.88253057
0.4042171 3.2904065 0.6751846
-2.0931337 2.7951994 0.2555158
-1.7430469 8.694511 0.6041526
-0.07463907 6.2664747 0.71144533
1.4763987 1.2356849 0.7589197
2.322106 9.506526 0.61442965
-2.0408955 8.760604 0.33758417
2.1350634 -0.74183244 0.6839073
-0.4924814 12.984933 -0.048440363
0.33515188 12.613696 -0.35327074
-0.4345598 4.502347 0.9880278
1.1729465 9.214065 1.4324706
-0.914162 6.2113237 1.2677721
0.19692567 7.0510726 -0.108721726
-2.0528011 7.4891768 -1.6755586
-0.44333172 12.093205 0.97105575
-0.22440574 7.1584883 1.6478068
1.1538185 7.1586776 0.16482127
-0.38692355 7.236808 0.991214
1.9415545 -1.8964692 1.3504436
-0.45833382 9.644661 1.2240982
1.353228 4.0658484 0.60732055
-0.95267886 4.0378966 0.8895498
1.1103184 9.188608 0.35375816
-0.14295378 12.020393 -0.68556273
1.710653 3.8887587 0.3586582
-2.2717004 8.490101 0.21048005
-0.75105786 4.5932875 1.3765934
-0.36153147 2.8708181 -0.14414126
-1.8270726 5.458709 0.4747333
0.4793079 4.659634 0.44535592
0.035444513 8.987331 0.12205045
0.4105402 12.528934 0.07204487
-0.71684015 6.163582 -0.5085313
-1.0074548 6.442109 0.70651513
1.3391367 10.588376 1.0466955
0.20381497 7.955572 0.053528246
-0.15616031 5.371347 1.6969795
0.3271242 8.228901 0.66073614
0.46607596 3.8354416 1.5705051
-0.88351333 10.465794 0.3035723
-2.2884433 7.4516544 -0.5123931
-0.6100267 6.723409 -3.6657498
2.0892723 -4.2561507 1.3671558
-1.7402287 5.821853 0.12722698
0.11827505 12.787884 1.2042218
-1.5544821 2.0715373 0.04874089
1.2230769 4.8585825 0.17341341
-2.6028333 7.2870398 0.47898647
2.4230049 9.041499 0.51351285
-1.1418512 3.6031036 -0.44235325
0.014924118 6.899995 0.5958187
-1.2668388 0.7006801 1.2809466
1.2408278 0.58244425 0.6030608
-0.17006424 11.138879 -0.007680032
-0.63397014 3.2576575 0.63986385
0.8793913 6.4504857 0.15280093
0.047507737 5.939446 0.94614017
0.59057844 1.3654146 1.0688304
-0.76131105 7.1386905 0.8150868
0.2388214 10.496485 1.382043
1.4283454 5.9191747 0.2006982
-1.5754147 8.121396 0.19858603
-0.60866296 9.196499 0.5813614
-2.234513 -0.1994151 1.3280063
2.425839 7.616851 -0.1481006
0.4906095 4.204857 -0.22994064
1.48621 1.6923907 0.73781586
1.8134571 -0.98359823 1.044249
-0.18923362 8.539347 -2.946098
2.2278876 -2.2721224 0.7867368
0.19439818 13.606381 0.5187728
1.7384002 10.013627 0.69951135
0.016097326 6.653669 -2.7829518
-0.08619361 5.2312264 0.0439669
-1.9440584 -0.3588251 0.067835614
-0.16005252 4.6266837 -0.3384626
1.1206146 10.425688 0.4323859
0.20837025 7.5664644 -3.743578
-1.3347529 7.516386 0.8243065
-0.56902766 10.183483 0.109139554
-0.24831675 9.17385 0.3690735
-0.40099573 8.1025 0.49029562
-0.1377354 6.536484 -3.1947255
2.1852794 -3.0426598 1.1577888
-0.93646306 6.6800733 0.3634094
-0.94544995 3.9324193 -0.5009383
1.1425452 10.147524 1.0516609
1.4012362 8.882429 1.3024584
0.10320742 13.5213995 0.88078356
-0.9843922 7.7259746 -2.8681881
0.5409069 8.521896 0.081726745
1.1665708 8.803099 0.39974728
0.8917764 5.560762 0.3066153
0.8831698 6.7943406 0.5365317
1.0908154 0.29659352 0.42467207
-0.34613624 9.330948 1.0331743
-1.8890511 2.2509542 -0.15425342
-2.1394298 9.717603 0.7600001
-1.974833 -1.522285 0.7994444
2.0559819 9.171547 0.6100609
-0.2732526 6.220593 1.0662438
-0.5288139 6.1005254 0.09225534
1.701741 0.15055622 0.923917
-0.6849133 1.5429126 0.52322495
0.10985388 7.64882 -0.3858599
-1.5673746 7.246101 -2.5709672
0.13630316 4.9349504 -0.36002475
-2.0974963 3.5206435 0.4894416
1.4243729 -0.13043934 1.2931048
0.74545985 8.366432 0.8391371
-1.7859572 5.4354043 0.06337732
-0.04486336 8.059471 -2.883561
-0.6069613 6.6039414 1.363322
1.4958678 1.8634802 1.0867641
-1.9531761 2.525985 0.9143463
-2.1816306 1.1333358 1.1689261
-2.0042617 2.1292596 0.97525084
-1.308388 7.5850573 1.5133028
1.1363804 1.8531069 0.8933572
-1.7290723 -0.91886556 1.5973448
0.9979454 9.783291 1.1209071
-1.0635124 1.7000664 0.35359985
-2.6072137 -4.6043105 0.9395749
-0.6338961 6.02844 1.0209115
-0.2556294 2.587553 0.5376301
-0.34201986 4.5335364 1.3525336
-0.75312966 8.779409 0.14346585
2.0562167 -4.62131 1.1729308
-1.4488678 1.3006657 0.9103297
1.1020907 -0.14915057 0.21044669
-0.44525164 7.7560782 -3.3574271
1.595855 -1.2444465 1.3933846
2.2581136 -2.058277 1.1356496
-1.6870406 3.6804953 0.59596586
1.4042872 10.646246 0.6650148
-0.7520095 7.981889 -3.0913975
-0.6037279 9.216707 1.2997798
-2.04005 7.201811 -1.4656676
0.10778611 5.2108183 1.0438038
-0.52842855 4.956529 0.74190915
1.0516787 8.023053 0.5912593
-1.9929005 9.708348 0.31134912
-2.6396682 -4.3391004 -0.16278102
-0.77247244 6.778114 -2.8919604
2.3084362 -3.239716 0.8339645
-0.91387725 3.2589982 -0.39575398
-1.6659625 1.5713136 1.1375753
-0.18395407 13.06146 0.2713593
-1.5940235 -0.9745014 0.97719824
-0.1186093 6.1584477 1.6459173
-2.2660956 8.7941 1.0549247
1.522144 8.997556 0.9591833
1.1335453 9.582106 0.79435146
-1.9305182 1.1527388 -0.053587593
0.19310787 5.2617564 0.65114903
-0.56193453 5.29773 1.4402801
-1.0099341 10.135744 0.15845537
1.6880729 3.4096112 -0.14904538
0.7987585 4.886657 1.5860721
-1.5304987 7.0591693 1.1587174
-2.4108634 7.4464326 -0.13114955
1.885882 -1.3302785 1.0492644
-0.3374072 10.623314 0.5640227
-0.72917014 3.5773993 -0.5176049
-0.1253032 11.0781355 0.9674292
0.21909264 5.5837474 0.8754057
0.48663607 10.132384 1.5224867
0.8363673 8.034605 1.0132008
-0.1490889 12.915684 -0.21487154
-0.07619805 4.1748104 0.37149638
1.0367409 0.6949843 0.29996303
-0.5073338 4.3236656 1.6446335
1.6053456 5.226894 0.49012378
0.8225838 4.4605026 -0.26591668
-0.2484224 12.312739 0.107852474
-0.6024803 8.336988 0.7661977
-2.3511457 8.373371 0.90526104
0.22203006 10.341811 0.21231343
-0.82504356 12.302513 0.34716702
0.15851882 11.030253 0.25980857
1.6195431 -1.6594803 1.2688788
-1.1193823 8.789931 0.18937643
-1.1891736 7.223611 0.15555274
-1.1802169 7.891201 0.88582927
-0.2400846 13.415309 1.0453529
-0.53405255 7.9858284 1.7813295
-0.4518764 11.395556 0.10195474
0.11751297 6.3856344 0.16446319
-0.48595938 5.3658056 0.6698407
0.0492577 10.161711 1.4427058
0.23927152 10.629551 0.8933714
0.9520742 3.847268 0.15934657
0.14818242 6.4469275 1.6861204
-0.17799158 10.329688 0.14223258
0.73041016 7.7227273 -2.767846
-0.24125934 6.5741796 0.50246805
1.3811874 3.0983953 0.64554155
-0.4738095 8.466133 0.36956695
-1.696737 6.804666 0.91321915
-1.0366249 1.840629 1.2331767
-0.0111807855 2.8808 0.46526533
-0.06160342 10.720665 0.22387002
-1.9394091 -1.2490195 1.1314584
-0.11748459 7.128936 -4.1339374
-0.312837 5.811279 1.753558
-0.6194715 4.1920085 0.8091818
0.615827 3.6948857 -0.3137024
0.95281994 7.3744173 -3.2816372
-1.9594016 10.616092 0.79558986
0.25954154 4.741358 0.050910078
-1.8516916 -0.35852575 1.2356507
1.579583 10.276057 1.1560733
0.81887245 7.4650373 -3.6602616
0.78635985 10.243715 1.0877588
-0.39322135 10.86075 1.2190598
2.0140104 8.521635 0.2092335
0.60407424 4.9311166 0.14688335
1.331594 4.4743958 0.40481618
0.7742113 4.23083 0.14005622
0.2417095 7.6408973 0.65443367
-1.7553257 9.008795 0.30860856
1.885677 9.52776 1.1614363
0.88372815 7.42785 0.237514
0.8675496 7.899545 -0.20534167
0.10788617 11.27951 0.7204283
-1.850891 3.5284622 0.9765551
-2.8561344 -4.5810466 0.5191362
0.75634295 3.5057673 0.508228
0.30023384 2.8919246 0.15251611
-0.8757936 7.5490265 0.8347359
0.15915187 12.448095 1.0657495
0.92075217 0.0170211 0.72452265
1.5150406 2.848634 0.36315033
0.091470756 6.0448713 -0.6082983
0.2431309 7.03729 -3.9977353
-1.1452936 8.166642 0.54707074
-2.1127136 -3.5574808 0.8333521
-1.355521 9.424439 0.014712192
0.5153387 3.718194 0.76925045
-0.8035314 7.1506557 -3.1517766
-1.4111866 3.0504456 1.2677512
0.86841714 3.5176249 0.90180194
-1.4457631 -0.7325884 1.3035812
-0.4219309 9.837535 0.4239862
0.24716963 3.1623297 1.4125195
-0.76737577 7.2826023 1.1612921
-0.4066024 6.6195703 -2.885214
1.5193725 -0.23124807 0.29289082
1.3543603 -0.48975727 0.044783
0.7667552 8.910427 0.24134032
-1.5515099 4.4411697 0.16608736
1.141713 3.3951483 0.49647415
1.7087435 7.1965113 -1.3658599
-1.817169 1.8643036 -0.20005104
-1.5537173 3.2254 0.049812175
0.26403025 5.8318624 1.3069826
-2.0542717 -2.754394 0.9608574
1.2777952 2.1423109 -0.41623265
-2.5484917 8.504657 1.1785046
1.0343547 1.0947495 0.14976566
-0.13208582 6.198709 -0.27625126
2.2922158 7.3210115 0.19271357
-0.3010425 6.2787633 -0.599167
0.27272493 4.320019 0.12494085
1.7891191 9.324611 0.32524437
-1.6469153 6.472948 0.62319124
-0.1104738 5.624477 0.079544365
-1.8947008 3.9987454 0.09825239
-0.97751266 12.952986 0.6611974
-0.7079991 4.274154 -0.57202876
0.500447 6.133236 -0.5064494
-3.010818 -4.5600796 0.07307988
0.61207426 9.890536 1.2440377
1.0001376 3.1393735 0.7851663
-1.9080411 -2.066805 1.387318
-1.2182963 3.9771988 1.1611557
1.7341989 9.2777405 0.80561596
-2.3061848 10.392647 0.66889066
