0.06995366 0.049125835 0.1722028
0.0042224876 0.80410093 0.17911643
0.030519366 0.32332486 0.19134086
0.008275235 0.9800466 0.08166256
-0.04980728 0.44918382 0.1482126
-0.006055966 0.6135738 0.2848434
-0.21668771 0.87338525 0.17936492
0.03163332 0.543124 0.17274255
0.12285912 0.21801415 0.12294223
-0.29803795 0.99801135 0.1561712
0.18309247 -0.091189474 0.21307787
-0.040241987 0.35394043 0.1452151
-0.015626105 0.42541617 0.11840208
0.28876945 -0.46270728 0.15138993
-0.11488601 0.87490773 0.07293756
-0.22891164 0.65293455 0.27934104
0.07425898 0.48566064 0.08004151
-0.2526101 0.6145133 0.10487779
0.16174343 -0.03700116 0.14888605
-0.08280015 0.4184819 0.17591071
0.17693925 -0.36498463 0.22510222
-0.28615922 0.3551373 0.13199982
0.09549197 0.25445116 0.19370407
-0.188308 0.6795721 0.25922322
0.040204987 0.52123415 0.21407422
-0.044461727 0.4995825 0.07614699
-0.20618823 0.30822313 0.10325973
-0.25026774 1.0231552 0.15213777
-0.14948481 0.7209655 0.27375063
0.040143266 0.408628 0.23170966
-0.23645559 0.4810285 0.2596321
-0.17727074 0.23226416 0.15980841
-0.18130606 1.23809 0.15708533
-0.00041808444 0.78722626 0.254854
-0.23325352 0.95348436 0.14844026
-0.37639675 -0.15578511 0.16917577
-0.020435438 0.377379 0.2782125
-0.21277842 0.6004846 0.22666694
-0.13797364 0.43504983 0.10137409
-0.061103504 1.0363598 0.17262411
-0.14102347 1.2526958 0.14221105
0.018371183 0.6610371 0.22577292
-0.046506777 0.86784077 -0.032846108
-0.12229112 0.86767423 0.1987086
-0.011780897 0.9136262 0.2572919
-0.30089027 0.06555641 0.17955044
-0.3227579 0.9077253 0.053406343
0.1072194 0.21256492 0.18268892
0.086792156 0.1893073 0.14242598
0.014058855 0.16728678 0.1486866
-0.036207594 0.8760171 -0.19281192
-0.31466776 0.1269306 0.16668233
-0.17235914 0.7559656 -0.23352979
-0.15294927 0.8307166 0.21925664
-0.069847174 1.0110804 0.24190192
-0.20917146 0.8084806 -0.17657945
-0.2039642 0.20567605 0.12626328
-0.20576034 0.78014 0.14156267
-0.16819826 1.0834098 0.13530162
0.048318595 0.3322565 0.11165845
0.059717998 0.16586468 0.16009429
-0.0838968 0.97339255 0.26091993
-0.06582531 0.37080932 0.18261847
-0.27633554 0.13660789 0.1400767
-0.16847199 0.89445305 0.097005844
-0.24019608 0.8319185 0.08340214
-0.0005502999 0.49060956 0.20872472
0.020913243 0.61431754 0.24657667
0.0059336876 0.55350655 0.08009519
-0.08029431 0.5652326 0.3052776
-0.2552581 0.2742625 0.17418295
-0.31631958 0.88308716 0.1849924
-0.07766461 0.59745836 0.1292989
-0.16248727 0.38084716 0.2762612
-0.06879696 0.84903544 -0.2623937
-0.1662957 0.464259 0.30923146
-0.38799784 -0.32299986 0.19984579
-0.2072548 0.50971174 0.23093224
-0.03728949 0.5845672 0.30049708
-0.22582066 1.200114 0.20599002
-0.10890542 0.835633 0.29846883
0.16952235 0.0055329516 0.1769203
-0.013933009 0.66623896 0.14118956
-0.23626848 0.8831092 0.08974652
-0.029787216 0.6848229 0.18138903
-0.043463174 0.75258243 0.07938711
-0.08233348 0.8745717 0.28566647
-0.0044483114 0.41105694 0.21675636
0.13461173 -0.008206101 0.121898666
-0.082602486 0.7919971 0.30172136
-0.22853383 0.840407 -0.021502305
-0.026974306 0.8345018 -0.16238543
-0.09444087 0.8179033 0.25453192
-0.116110824 0.38260043 0.18284303
-0.13298547 1.0491889 0.21090424
-0.1596517 1.1910582 0.058729254
-0.053721808 0.80225897 0.24506292
-0.15057278 0.9361828 0.0892118
0.02844501 0.55558795 0.121897556
-0.27610642 0.8445698 -0.035733625
-0.03942594 0.41043502 0.2505073
-0.16834024 1.2928207 0.13927805
-0.14665586 0.7338903 0.13869765
-0.11887668 0.90325665 0.10948227
-0.3619318 -0.06931847 0.2032488
0.22455099 -0.4129243 0.2525201
-0.3489198 -0.2639863 0.22875413
-0.15811767 1.1846433 0.24203561
0.29506272 -0.45768026 0.11172633
-0.15409613 1.1415069 0.045381047
-0.21283308 0.73253655 0.16803955
-0.0118363155 0.82905805 0.26710325
-0.19472799 0.5334032 0.14964426
0.0076116463 0.704263 0.25089163
-0.045648932 0.48286518 0.22893225
-0.20747434 0.46111953 0.2881709
-0.08521341 0.47128063 0.27055737
-0.31775534 0.86418474 0.043208838
-0.2764262 0.84667516 0.11376093
-0.18998219 0.79648066 -0.21975386
-0.042898744 0.4100093 0.19417574
-0.15693799 0.74099183 -0.46875274
-0.099013165 0.77874917 0.21916345
-0.18493709 0.66907465 0.07153961
-0.041927867 0.6431309 0.3002353
0.01899966 0.9525665 0.19376317
-0.17670855 0.77382386 -0.1766907
-0.22864988 0.7567755 0.09161994
0.19631317 -0.414505 0.20882562
0.024029199 0.6204665 0.19905755
-0.13847801 0.34692788 0.24983971
-0.10001446 0.460366 0.11253282
-0.0991507 0.32478958 0.24278
-0.2768559 0.027270297 0.15082183
-0.40411562 -0.34495193 0.23857363
-0.10152155 0.9524517 0.094921194
-0.13238874 0.46925014 0.18913838
-0.13712695 0.97072434 0.20587906
-0.18073356 0.69673276 0.30590987
-0.25303563 0.82908815 0.18834436
0.26922956 -0.4601614 0.19064236
-0.16379496 0.76142055 -0.29420102
-0.06022938 0.35864854 0.2632391
-0.16459905 1.0906777 0.048210487
0.07568662 0.060483456 0.12796009
-0.16263363 1.0028901 0.23350441
-0.1016911 1.2201205 0.14330329
-0.074327305 0.7692846 0.057863157
-0.0075132265 0.42494446 0.16099498
-0.26085758 0.06392498 0.112013906
-0.22730789 0.81517315 -0.13164692
-0.26011458 0.9900093 0.12556125
-0.025798246 0.6835927 0.22850329
-0.11882171 0.29242042 0.21619013
-0.14188772 1.2900246 0.104287565
-0.27316877 0.9566419 0.1784023
-0.3945398 -0.2868084 0.23332423
-0.1142012 0.4265156 0.20927766
-0.0077013928 0.7671213 0.1510945
-0.34355313 -0.23183991 0.1964501
-0.15355676 1.2114487 0.11959263
-0.23739204 0.4356594 0.24680747
0.20112905 -0.3314212 0.2102699
0.09071765 0.31943673 0.11868298
0.116870604 0.12520292 0.099432595
-0.13488398 0.5571344 0.23662613
0.073860735 0.49634904 0.17359704
-0.0024567319 0.2070129 0.13678806
-0.19272915 0.61721885 0.15071586
-0.029616846 0.9937676 0.08737022
0.12314679 -0.14625967 0.21716076
-0.05456937 0.65945524 0.25715595
0.27716684 -0.45836693 0.07924873
-0.0023619866 0.880145 0.03343416
-0.28547984 0.9521725 0.13483143
-0.22981535 0.7832874 -0.09869683
-0.32640854 0.16205144 0.12609804
-0.11669184 1.0059657 0.23835188
-0.27516407 0.4827013 0.17664954
-0.12831028 0.6686151 0.09809945
-0.047967665 0.9879807 0.17032844
-0.2722612 0.108315095 0.18529204
-0.15215048 0.6537813 0.16137306
-0.38557243 -0.20686005 0.1833831
-0.1253643 0.58000696 0.116528854
-0.29410267 0.09225227 0.08366591
-0.04428 0.45293772 0.2707739
-0.022006594 0.9440348 0.09963445
-0.12717766 1.2941263 0.16491742
-0.2824268 0.18186596 0.1387204
-0.01814859 0.8944576 0.089819014
-0.2414426 0.568482 0.26856336
0.18569195 -0.45385778 0.3056482
-0.053218096 0.50221086 0.26973522
-0.16535875 0.6454434 0.11570324
-0.10403489 0.72277915 0.26890537
-0.013676567 0.5925681 0.0713128
-0.24349129 0.3846305 0.18490407
-0.019881953 0.27694044 0.1276815
-0.12070775 0.5419551 0.15759131
-0.057038702 0.5828348 0.18633997
-0.2944473 0.3065397 0.112933345
-0.087485716 0.3336817 0.15681478
-0.08962616 0.7097149 0.31054935
-0.08630487 0.5119891 0.0787799
-0.023374734 0.6974664 0.28408796
0.015127757 0.93517375 0.07536978
-0.1576989 0.5518178 0.3126502
-0.24776742 0.52571905 0.24095005
-0.24762385 0.841763 0.028236698
-0.2436974 0.90967923 0.16093913
-0.19098163 1.0805973 0.17188485
0.008264365 0.41493088 0.2690352
-0.13341656 0.52895164 0.070322365
-0.23329654 0.5490663 0.15699759
0.19368678 -0.19116409 0.2324525
-0.13982034 0.6495607 0.23086785
-0.2182183 0.4541363 0.14178434
-0.23814894 0.7107575 0.09688415
-0.25160754 0.8772814 -0.005190813
-0.21094936 0.90933776 0.2146646
-0.1324675 0.9627817 0.25524563
-0.13074607 1.0144389 0.18362306
-0.3672753 -0.12159376 0.22000992
-0.076084256 0.8800125 0.18866283
-0.024311284 0.6974971 0.114612296
-0.14047131 1.1678143 0.1425575
0.07898812 0.33117646 0.20408636
-0.23083386 0.35751748 0.15262187
0.021761648 0.5118582 0.12785047
-0.2374906 0.9443354 0.20089556
-0.23932219 0.75373185 0.27910465
-0.21355331 1.2695129 0.14475161
-0.10626256 0.86199415 0.24101007
-0.26177597 0.42490798 0.19964615
0.011827007 0.7457033 0.2346929
-0.05734434 0.71525395 0.25992104
-0.28171355 0.9413078 0.23393163
-0.25892854 0.5980785 0.14915189
0.020078428 0.9110156 0.11810675
-0.27969202 0.7547258 0.2067731
0.0031977901 1.0104954 0.1205299
0.01176505 0.66482 0.18134385
-0.099165395 0.6771606 0.26990086
-0.29920307 0.92284656 0.106704734
-0.19163823 0.6505711 0.30205405
-0.18214044 0.33742002 0.24214819
-0.10536872 1.1883435 0.17046401
-0.1046917 0.9324229 0.14136419
-0.09064703 0.68783617 0.07392504
-0.19295967 0.9583394 0.20414633
0.17874496 -0.3350942 0.2596747
-0.093459174 0.8803967 -0.40078905
-0.0028241803 0.65746826 0.26865274
-0.04043749 0.47256893 0.3133515
-0.14830543 0.27150142 0.14384441
0.10951609 0.16460383 0.18244843
-0.21929829 1.0347985 0.1851264
-0.19829276 0.66788375 0.15298635
-0.013496593 0.6605009 0.0637707
-0.088773616 0.4856463 0.3206011
-0.061630182 0.7115023 0.10019812
-0.12892993 0.3928433 0.23554304
-0.33222085 0.08061542 0.15453602
-0.014978226 0.95773375 0.049591843
-0.20978008 0.26957536 0.1805973
-0.1708146 0.7565337 0.16635734
-0.18149391 0.78758264 0.23046178
-0.11344537 0.8180128 0.20186827
-0.00801149 0.3371871 0.24905214
-0.041264094 0.57421064 0.10300735
-0.29342085 0.08525315 0.1337754
-0.03328608 0.87184924 0.21767434
-0.014812198 0.5425919 0.2925692
-0.25538754 0.2890011 0.094953
-0.31676418 0.9809468 0.10860674
-0.11983834 0.9081483 0.23105296
-0.29875427 0.041823357 0.0924249
-0.25174588 0.6194556 0.24728304
-0.09602198 0.517353 0.28432602
-0.21480367 1.1607113 0.18042794
-0.16499099 0.5651383 0.14584303
-0.09003776 0.66323155 0.16740194
0.035313524 0.4936648 0.16857046
-0.29522923 0.86983377 0.003742618
0.0626706 0.23634116 0.20885603
-0.19854508 0.72430557 0.07138619
-0.11084537 0.7504991 0.30752164
-0.2098363 1.0569663 0.13235457
-0.33524245 0.9143503 0.14907493
-0.24548548 0.88004696 0.045388363
-0.15411952 0.6892798 0.13661692
-0.15860885 0.4070661 0.18871601
-0.24571931 0.1892096 0.15779407
0.25778306 -0.4328046 0.14778653
-0.21089554 1.185451 0.104417354
0.0307861 0.28163853 0.14111492
0.014118134 0.70578694 0.20377305
-0.43793765 -0.4566255 0.21103674
0.015670758 0.5836452 0.16915898
-0.30200887 -0.037558936 0.15687364
-0.18314031 1.191273 0.146606
-0.2942952 0.8006393 0.20349193
-0.023454368 0.91611904 0.13636777
-0.34573323 0.95077455 0.12296061
-0.06665677 0.90334076 -0.4629243
-0.1266549 0.8826173 0.2844639
-0.19064906 0.736457 0.25664622
-0.42107475 -0.41239637 0.22740045
-0.2566021 0.5710081 0.22508068
0.057538413 0.47341472 0.21008843
-0.09117937 1.0116996 0.14774299
0.21716166 -0.45804498 0.19200772
-0.03130301 0.2424292 0.14903268
-0.24004306 0.53211904 0.11042301
-0.09250701 0.46224415 0.15357316
0.11031096 0.030811146 0.11447562
-0.13188091 0.8318143 0.15911952
-0.36989138 -0.36797202 0.2332382
-0.24763027 0.8047974 0.27777672
-0.13763891 0.7482869 0.24009615
-0.35962796 -0.0018030667 0.13892984
0.010785345 0.24349105 0.119135104
-0.049963348 0.49603772 0.17835094
-0.1718786 0.53079194 0.25654036
-0.031379186 0.59557116 0.14851351
-0.16054669 0.70936096 0.09765084
0.04180803 0.33370674 0.23638996
-0.124659374 0.525821 0.20389593
0.10920926 0.12035688 0.18575539
-0.15927058 0.30930215 0.115836896
-0.19849256 0.87711895 0.06281293
-0.1441007 1.1192744 0.16889617
-0.10546154 1.1834993 0.11472434
-0.016144287 0.51757854 0.24766454
-0.16751346 0.6198098 0.19884121
-0.111909375 0.76400495 0.12427056
-0.09695108 0.54634875 0.11811234
-0.16914043 0.85323596 0.18559119
-0.040580027 0.8385584 -0.21450946
-0.08802785 0.87506163 -0.4389555
0.20989138 -0.3628652 0.25328863
-0.08864667 0.79423374 0.15530376
-0.2103247 0.50140476 0.10372236
0.03943626 0.44962767 0.24485105
-0.05290577 0.9640778 0.21072394
-0.22843665 0.45534337 0.18668441
0.022834286 0.94424963 0.1510646
-0.3642192 -0.058943205 0.15235278
-0.2650658 0.8162118 -0.009147149
-0.031392124 0.74091744 0.121714585
-0.04385252 0.9063544 -0.018998137
0.06307806 0.28811634 0.22074735
-0.020047925 0.8355423 -0.110757336
-0.1469987 0.7794864 0.20713267
-0.2267457 0.83324647 0.2442834
0.22819425 -0.46044904 0.14779349
-0.38923797 -0.23126407 0.22393322
-0.24533816 0.22963332 0.20424962
-0.028801644 0.42402333 0.30291504
-0.19523749 0.28158465 0.2214991
-0.16054128 0.7713982 0.27348924
-0.25734198 0.6117156 0.2015059
-0.10761836 1.2850769 0.12691669
0.03536978 0.36066902 0.16166042
-0.2821828 0.20332038 0.19173075
0.05675385 0.45208108 0.16180634
-0.16002512 0.50198287 0.09698519
0.017555663 0.78592205 0.21622682
-0.22658144 0.758659 0.23372236
-0.2770236 0.5233345 0.14083369
-0.1754939 0.5944154 0.10525009
-0.018528305 0.9430487 0.18119809
-0.12749644 0.68590343 0.18618768
-0.1321785 0.7336906 0.19491667
-0.22782525 0.3188911 0.18396735
0.24607323 -0.4571675 0.10779862
-0.037837394 0.9187455 0.22048742
-0.0487881 0.5281271 0.2161013
-0.004869248 0.49920857 0.29084426
-0.22821072 0.95259637 0.24589112
-0.14264998 1.219665 0.17685804
-0.14148656 0.75282437 0.0873138
0.021361584 0.46281362 0.13053939
-0.11265521 0.6323874 0.13767587
-0.09666483 0.8590978 0.12174836
-0.046296507 0.5477221 0.06683569
0.120359376 0.16985777 0.11076057
-0.19777972 1.1658187 0.06554073
-0.104703926 0.37180334 0.27084368
-0.07948403 0.83866334 0.08383026
0.16469075 -0.30454355 0.22281438
-0.066164196 0.61490333 0.22128299
-0.2356133 0.18367548 0.20349899
-0.20135546 0.7394576 0.29984745
-0.04741296 0.8552027 -0.07792033
-0.005837737 0.8740258 0.14533941
-0.1316604 0.6986601 0.3135131
-0.11542362 0.81516325 0.119182274
0.057516705 0.31981692 0.15586895
0.0485304 0.52581286 0.076275766
-0.33321851 0.02642531 0.17049184
-0.24189657 0.6932912 0.14820665
-0.1811705 0.9634721 0.24999169
-0.31669426 0.17907631 0.16767025
0.030425476 0.17057052 0.19463992
0.03513185 0.12910709 0.17066303
-0.029104691 0.31915224 0.1138104
-0.23543455 0.41288692 0.14816684
0.19337761 -0.17230949 0.1924401
-0.1833415 0.74105823 0.20995443
-0.057113275 0.83119845 0.29153728
-0.24785118 0.92722607 0.112267874
-0.17388895 0.46046063 0.09824553
-0.106876 0.6887058 0.13744625
-0.0444213 0.6661352 0.09580374
0.07609695 0.15909125 0.09889519
-0.20092589 1.2613894 0.19162068
-0.29205462 0.9145839 0.15871269
-0.27037978 0.27474102 0.13514896
-0.14668038 1.0725617 0.17478961
0.032514337 0.57401794 0.21968941
0.027046144 0.8943571 0.07245472
-0.015322205 0.46828693 0.10046035
-0.15288645 0.30350953 0.22650342
0.013333965 0.36528918 0.20803067
-0.00923425 0.4731077 0.15639466
-0.0382216 1.0219629 0.20771343
-0.20677379 0.41819197 0.2147845
-0.24371497 0.75099087 0.13393897
-0.06827843 0.8854511 0.09681762
-0.2740301 0.9685622 0.08524557
0.11320223 0.052580386 0.1524888
-0.18440033 0.50723016 0.30694783
-0.31630135 -0.083983585 0.16841222
-0.09747715 0.41795605 0.12956867
-0.21099272 0.8157407 -0.073262945
-0.06183436 0.82410043 0.12964272
-0.09084009 0.63133615 0.26239812
-0.15003142 0.57248795 0.07211374
-0.15511124 0.91065127 0.1412263
-0.12267308 0.47607833 0.07057909
-0.16251236 0.80080104 0.08896329
-0.32148385 0.21325679 0.12681521
-0.014506694 0.5929775 0.21039732
-0.25139025 0.5172981 0.19582684
-0.09656915 0.65536004 0.3112434
-0.03029003 0.8953043 0.17780821
-0.11843155 1.1566052 0.073989615
-0.07795955 0.89778423 0.1472047
-0.26993775 0.88991433 0.12475439
-0.15437242 0.9485001 0.17182845
-0.030430589 0.8429321 0.100868955
-0.121058434 1.2026751 0.075782456
-0.118903086 0.4643833 0.23530194
-0.14714828 0.6757196 0.27111936
-0.28586847 0.8863727 0.07975535
-0.18981256 0.25968587 0.1216131
-0.22780615 0.98683393 0.17806455
-0.13497037 0.49741185 0.3222713
-0.20142657 0.6818551 0.10941669
-0.31408057 0.2300116 0.16865829
-0.027532574 0.5524111 0.17700273
-0.21268639 0.3595258 0.10606828
-0.23337004 0.85954297 0.1349602
-0.22036687 0.46035326 0.10079217
-0.34134415 0.01572806 0.09478846
0.056451477 0.52966994 0.13436344
-0.15939887 0.44162565 0.22030362
-0.074593045 0.29360086 0.21953365
-0.096017756 0.9487761 0.22255468
-0.050845064 0.53131884 0.106135994
-0.012218205 1.0246644 0.16420019
-0.18910173 1.1204045 0.065367326
-0.21578397 0.70428944 0.23135814
-0.34843493 -0.022193149 0.18528137
-0.03212881 0.8725086 0.2740798
-0.28978616 0.8309466 0.022618704
-0.1636298 0.7028683 0.22640103
-0.05605881 0.5228075 0.31271976
-0.18079299 1.2593863 0.106937654
-0.08372268 0.65375465 0.11247003
0.005191627 0.32639948 0.1492363
0.03377624 0.4835016 0.0881225
0.22411796 -0.45885766 0.2816106
0.14859924 -0.16591382 0.1864991
-0.13156569 0.6368365 0.27896458
-0.036373787 0.7866249 0.28617984
0.19344684 -0.26889405 0.20614198
-0.3284443 0.11601516 0.11916599
-0.11944833 1.1522065 0.19174336
-0.25842026 0.6562885 0.20159766
-0.10275392 1.1451509 0.14991802
-0.14093092 0.7720444 -0.43297744
-0.11906423 0.60195553 0.30683115
-0.30573845 0.82955897 0.1643992
-0.053046003 0.5504383 0.27004158
-0.09509898 0.76786447 0.26502305
-0.23324218 0.14098516 0.17743203
0.16726893 0.014645097 0.13131744
-0.2949716 0.88964117 0.23340279
0.016409025 0.9896517 0.16005424
-0.20468342 0.8271071 0.20562574
-0.3149097 0.26312166 0.1279071
-0.2442995 0.6443716 0.15373492
-0.03593512 0.6327034 0.06008516
0.1874491 -0.139875 0.22549403
-0.15280291 0.7843207 0.13176617
-0.16109186 0.26827598 0.19027847
-0.20210671 0.2293992 0.20350526
0.15180242 -0.25205135 0.21619374
0.06767111 0.09916836 0.18519346
-0.047739632 0.8688811 0.13579737
-0.14306186 0.3935214 0.13834745
-0.09911613 0.29421633 0.17317182
-0.07443239 0.7844715 0.10749142
-0.26982194 0.48369193 0.12177332
0.05013939 0.09430395 0.146421
0.102575235 0.0714083 0.1906837
0.17614408 -0.043898173 0.1931307
-0.17179254 0.36662793 0.16848198
-0.31649783 0.9292908 0.20076886
-0.06052438 0.55462277 0.14554143
-0.032962196 0.4524684 0.1942604
-0.22527732 1.2008398 0.15815668
-0.02125876 0.63640314 0.22751951
-0.21156083 0.83504456 0.2894532
-0.27785534 0.3985898 0.15576755
-0.07799245 0.61960036 0.1754213
-0.26658636 0.9058564 0.20004568
-0.05363454 0.8443136 -0.12996694
-0.16234213 1.1674211 0.09946564
-0.3325671 0.069403894 0.09522304
-0.18077669 0.8280215 0.25632033
-0.06311116 0.32736075 0.19583465
-0.08986434 0.73375326 0.22321334
-0.072178036 0.3343316 0.11532717
-0.058192402 0.69417584 0.14182618
-0.13148212 1.1080203 0.07629967
0.08247492 0.37384242 0.18017375
-0.28452402 0.25472915 0.19974308
0.11819233 -0.09546399 0.21379378
-0.2529353 0.334015 0.10582307
-0.1452258 0.3106165 0.17232835
-0.085707344 0.84195936 0.16471356
-0.33501515 -0.033505112 0.121796235
-0.0062940447 0.86570424 -0.013470074
0.0028954372 0.5755811 0.26467413
0.17347011 -0.45243007 0.2708853
-0.20436561 0.76393723 -0.20181212
-0.26217422 0.32257092 0.15592432
-0.10312261 1.2250974 0.20199645
-0.21301419 1.227768 0.12160668
-0.07241762 0.4651774 0.075805545
-0.017697573 0.33081037 0.19506966
-0.020297065 0.8754873 -0.10156637
-0.29488257 0.19187227 0.095437944
0.1540592 -0.16803506 0.24219239
0.11056698 -0.03449733 0.16134205
-0.13590881 0.60220444 0.25621906
-0.25262642 0.92724335 0.06578512
-0.25537908 0.16198671 0.095488295
-0.1746968 1.0353851 0.15837866
0.017569777 0.29689062 0.10926235
-0.26380843 0.5597342 0.18002918
0.14805488 0.046513826 0.10205555
-0.19223255 0.7879098 0.30077565
0.039454255 0.19346888 0.11480296
0.02014535 0.25912473 0.2163747
-0.07533772 0.8975601 0.23438764
-0.22630802 1.1618828 0.1348803
-0.19420381 0.38834053 0.1351112
-0.31250602 -0.05026999 0.20493963
-0.2592917 0.85811126 0.26250967
-0.22260103 0.15643981 0.12852508
-0.17515597 0.40738866 0.09966219
-0.1507785 1.2396014 0.07754131
-0.2813456 0.78816766 0.15536895
-0.06561184 0.2865665 0.13487372
-0.30004123 0.8498049 0.20952922
-0.42225468 -0.44992292 0.12965053
-0.21391413 0.6064645 0.28383565
0.1753945 -0.08291347 0.16835564
-0.21216214 0.7842084 0.06414771
-0.058651578 0.7442343 0.29727882
-0.18383977 0.32053438 0.19485703
-0.24733812 0.20675409 0.10411833
0.15803376 0.05068081 0.14887962
-0.05832546 0.68609285 0.3021782
-0.4234355 -0.41404754 0.16742684
-0.2282207 0.29496792 0.1387772
-0.04303644 0.60875523 0.2603655
-0.2838747 0.36206424 0.18245824
-0.19617876 1.0885395 0.098503545
0.06536311 0.28737918 0.1063779
-0.23267108 0.49786255 0.15131898
-0.21253008 0.6348047 0.18958439
-0.12401807 0.87970555 0.15496686
-0.25446254 0.11414307 0.09898503
-0.23282295 0.25119823 0.10583183
0.20789036 -0.23918477 0.23041493
-0.20939878 0.8990546 0.12745047
-0.17249686 0.5390899 0.20233756
-0.12805206 0.6226018 0.09567545
-0.2487418 0.86613345 0.2162427
-0.18957627 0.5794171 0.17887273
-0.05596763 0.67548794 0.052926216
-0.20618989 0.92618465 0.07834031
-0.17429933 0.87445366 0.28326064
-0.0387711 0.37575516 0.10937297
0.029446635 0.49243063 0.2528075
-0.020701082 0.96930397 0.13675208
-0.010963795 0.6359235 0.10360054
-0.17134267 1.0304742 0.111232966
-0.043337863 0.9149963 0.05863417
-0.120673314 1.1873426 0.21715847
-0.1267378 0.3894558 0.09838672
0.11023531 -0.045140706 0.20584454
-0.11365841 0.33354193 0.19634749
0.13673073 0.03886055 0.18984415
-0.15503228 0.5101241 0.16600178
-0.1916048 0.33432466 0.14511503
-0.18132403 1.1440663 0.14538802
-0.1639472 1.2821004 0.18409939
0.025429834 0.21455806 0.20843962
-0.22496726 0.32356724 0.22806229
0.060892634 0.373014 0.21838462
-0.19801374 0.92280734 0.16912699
-0.046546407 0.6187024 0.10343029
-0.043010846 0.7874886 0.15898418
-0.056717176 0.6574236 0.19941244
0.010386674 0.8697735 0.20001462
-0.0030756094 0.5467183 0.21553391
-0.21843877 0.8782369 0.27208382
-0.08382532 0.91444945 -0.4177607
-0.38194585 -0.17044568 0.21662503
0.010049881 0.61043763 0.06402303
-0.015306385 0.7434856 0.2711222
-0.30284327 0.9789239 0.20525408
-0.3583112 -0.3139426 0.23133177
0.13915133 -0.2007097 0.21294633
-0.30565277 0.27943945 0.17015076
0.13334006 0.18663755 0.15168238
-0.12007501 0.91836685 0.18536226
-0.045052856 0.57000244 0.23320931
-0.24347118 0.7980764 0.22170055
-0.4614929 -0.4563399 0.16375802
0.2460173 -0.42012537 0.205636
-0.21873838 0.55213714 0.20104443
-0.04840956 0.87213635 0.06480136
-0.11834195 0.34656394 0.109208986
0.09976354 0.008080298 0.19221833
0.08734807 0.13783291 0.14465776
-0.20152044 0.4099009 0.1738448
-0.057347715 0.94136226 0.15851578
-0.41684625 -0.45793992 0.2655737
-0.06340258 0.92578197 0.1101369
0.1426673 -0.014938766 0.20724532
-0.13098378 1.0417652 0.13467062
-0.15093267 0.92036664 0.26884207
-0.2637501 0.7245544 0.24603924
-0.12492606 0.5612799 0.28081095
0.07280226 0.23392245 0.15097015
0.04466606 0.377505 0.1219109
-0.06762053 0.44205827 0.22894046
-0.11408409 0.30647874 0.13075876
-0.0968653 1.2579557 0.16426471
-0.19668372 0.9165683 0.2612136
-0.38076538 -0.4576385 0.23122783
-0.08293637 0.8753327 -0.33006412
-0.3227278 -0.10028546 0.21790716
-0.4022119 -0.3744112 0.19736484
-0.09755602 0.653922 0.21792914
-0.16617294 0.35660455 0.10856883
0.22306332 -0.4127224 0.1691616
0.03231116 0.42013833 0.1333983
-0.12040371 0.69724804 0.23094895
0.020408366 0.37348068 0.25453764
-0.07894015 0.39735997 0.22776048
0.028656073 0.40159553 0.17784864
-0.33826807 0.042673536 0.1300751
-0.07556817 0.5096318 0.14199336
-0.16711295 0.60744524 0.30193514
-0.16530234 0.8966814 0.18898845
-0.35427713 -0.10691336 0.15284082
-0.12234761 0.44520915 0.31705922
-0.43342853 -0.45960712 0.087942705
-0.38234478 -0.4151985 0.2042037
-0.3046863 0.3212574 0.15724185
-0.22788501 0.70233786 0.28148347
-0.1955317 1.1670966 0.22084233
-0.2539385 0.3831158 0.116159454
0.11031561 0.07665703 0.09465469
-0.13955605 1.2249227 0.2357383
-0.17600054 0.9764395 0.10703418
-0.21915141 0.41590533 0.103574224
-0.31472528 0.8690108 0.13376328
-0.05789852 0.48007867 0.116072595
-0.051913127 0.7599781 0.24121004
-0.20720252 0.8272601 0.15784664
-0.16185 0.4932602 0.21555474
-0.07359264 0.6912329 0.22698021
-0.13057992 0.43170556 0.16023317
-0.21948338 0.51643455 0.28087634
-0.048767097 0.32280126 0.2392459
-0.025475249 0.895195 -0.057255283
-0.2589284 0.47287434 0.22076763
-0.10593714 0.72900283 0.15957358
-0.12788567 0.508605 0.24690005
-0.12539376 1.0937965 0.1328136
0.026658932 0.53822994 0.2611291
-0.16825773 0.8260182 0.12842716
-0.27166077 0.8660413 0.16708097
-0.13408688 0.79842734 0.25281465
-0.26011658 0.9842857 0.22861439
-0.06904259 0.99090886 0.09793377
-0.2675023 0.44896215 0.1559136
0.016395513 0.8289517 0.2227053
-0.17850947 0.9991155 0.18722436
-0.17555685 0.43294057 0.13736749
0.051120467 0.2431094 0.10975478
-0.11485348 0.6055414 0.21845564
-0.33433062 -0.18260658 0.18490948
0.06927839 0.49091452 0.12583177
-0.13249376 0.7918079 0.3032221
-0.24047771 0.38980967 0.2284039
-0.016227728 0.24446192 0.19325079
-0.25401622 0.7939137 0.11028526
-0.02669577 0.28690928 0.21956737
-0.04943194 0.27828294 0.17751415
-0.10332146 0.5830742 0.16409531
0.14055902 0.08927582 0.17106059
-0.31452447 0.81514996 0.119085595
-0.15090749 0.35590416 0.20734012
-0.20262176 0.55431926 0.29671723
-0.08325371 0.6412715 0.062849835
-0.23740715 0.8531796 -0.056167576
-0.15497169 1.1441619 0.2150673
-0.14603895 0.65279526 0.31434575
-0.17549738 0.6650254 0.20470567
0.16325119 -0.2215088 0.24565065
-0.16096528 0.92931014 0.22066553
0.08132127 0.36209083 0.13456015
-0.2561744 0.34949464 0.21362218
0.029272558 0.86003923 0.118416496
0.11646949 0.28911364 0.13891132
-0.18394908 0.43625593 0.25668913
-0.18277518 1.2097633 0.19770661
-0.049788475 0.40104383 0.14401305
-0.115992576 0.78980637 0.0822805
-0.22864127 0.5944489 0.17146242
-0.087154895 0.7455139 0.08482883
-0.12690257 0.4727574 0.28194773
-0.073949695 0.7559978 0.1867052
-0.19036856 0.97105026 0.15230763
0.17722136 -0.40817502 0.24932212
-0.29862952 0.14032358 0.09162317
-0.21590021 0.7705246 -0.14991194
-0.12397553 0.62997806 0.18471575
0.090130195 0.010908895 0.14739025
-0.18535215 0.29210204 0.15465079
0.0043988195 0.59346294 0.11530149
-0.09301029 0.56819355 0.21164444
-0.21806636 0.68630934 0.19067559
-0.04617387 0.95012236 0.26282662
-0.17634337 0.86991537 0.14567268
-0.37187576 -0.45915192 0.28181314
0.09996168 0.096022084 0.14537722
0.15202554 -0.11547974 0.23895735
-0.11460326 0.5023875 0.11849834
0.024265163 0.9636197 0.11590998
-0.26479512 0.69979084 0.19918951
-0.14174947 0.9529599 0.1283856
-0.14112708 0.8592623 0.11069916
-0.047912955 0.8749849 -0.24173659
-0.18143688 0.7596302 0.10197545
0.17320478 -0.27160442 0.25045002
-0.21053888 0.6314893 0.11108762
-0.004983175 0.953822 0.23493877
-0.034728445 0.78945065 0.11324161
0.016453493 0.8482549 0.16925251
-0.0037249816 0.51566344 0.08925322
-0.05070189 0.6432696 0.1449056
-0.15731257 0.8804368 0.23630708
-0.3315196 -0.1523271 0.22495672
-0.16959381 0.5846539 0.22500925
-0.18770364 0.54651254 0.10226334
0.13108864 0.0053638117 0.16174458
-0.056732066 0.95582175 0.074444875
-0.026146505 0.77359515 0.20504412
-0.17820805 0.62969804 0.2536468
0.07231526 0.19117084 0.2036826
0.013267082 0.91147304 0.21580113
-0.2381407 0.10730976 0.14140299
-0.40531227 -0.4584123 0.17724647
-0.20576242 0.556811 0.24405877
-0.14108509 0.43029958 0.26430827
-0.19931641 0.8555353 0.10537186
-0.16327688 0.73844707 -0.424765
0.1828975 -0.21775252 0.19573621
-0.27924633 0.30965513 0.20130202
-0.14021865 0.7546055 -0.3851598
-0.19799945 0.86866295 0.22865048
-0.20940332 1.1094556 0.1408414
0.2458817 -0.46053094 0.2345251
-0.08812677 0.49893266 0.22299159
-0.17840633 0.45714062 0.1783168
-0.28216124 0.90447116 0.028360415
0.008407798 0.74802804 0.18778363
-0.33492517 0.8953446 0.09944474
-0.19327535 0.7879956 -0.12216222
-0.11467491 1.2373865 0.10478706
-0.11133758 0.538139 0.31999952
0.02106274 0.9042007 0.1687144
-0.08206492 0.46337187 0.19488859
-0.1717864 0.48163375 0.26123458
-0.22558555 0.96506673 0.10228165
0.005099602 0.4561308 0.28465262
-0.06384698 0.84119457 -0.17786601
0.13702318 -0.12051794 0.179613
-0.15050128 0.9962243 0.14702605
-0.08782558 1.0393877 0.21046789
-0.106823646 0.49920806 0.17171213
-0.032899413 0.72600174 0.21535876
0.22116588 -0.37815672 0.20402578
-0.09297012 0.37462252 0.14168377
-0.16929471 0.4212895 0.30280077
-0.11384298 1.1350737 0.110150434
-0.20508969 0.78140235 0.19093636
-0.07002136 0.9695946 0.12955566
-0.2100271 1.1361123 0.10128106
-0.041985475 1.0151384 0.12765951
-0.25075504 0.8194519 0.14370361
-0.2455781 0.662885 0.101220034
-0.23488966 0.735543 0.2026667
-0.12556675 1.2629073 0.2024967
-0.15633044 0.7445626 0.3112103
-0.15622774 1.0710384 0.09334591
-0.08877294 0.561304 0.077256635
-0.026459076 0.8739127 -0.14887032
-0.14139968 0.47125524 0.13675587
-0.08724329 0.9948231 0.19863528
0.0054365215 0.34589016 0.11242729
-0.07460494 0.61391234 0.30627257
-0.11939977 0.9877615 0.12064786
-0.1482288 0.6064564 0.14933847
0.048523642 0.27802297 0.18307018
-0.20727697 0.808295 0.10707563
-0.32374263 -0.1359715 0.17708226
-0.20419857 0.36447394 0.2012892
-0.10249122 0.43012318 0.07597716
-0.032880515 0.9893461 0.24374822
-0.07095949 0.8710786 -0.292366
-0.057243973 0.42942905 0.10234888
0.07068917 0.40634805 0.15181775
-0.0136830285 0.3754276 0.17215362
-0.07665378 0.7054504 0.18531345
-0.31860533 0.84362316 0.08351824
-0.0024688265 0.7123492 0.15905088
-0.07024604 0.7209332 0.055025294
-0.10468083 1.0542852 0.17157513
-0.47757953 -0.45915967 0.11548712
-0.0018873848 0.28607237 0.17508091
-0.17264766 0.70594054 0.17619385
0.099611804 0.25540057 0.11051911
-0.26275694 0.73305154 0.16652203
-0.27695924 0.8464 0.062126644
-0.04097721 0.31333047 0.1562889
-0.043811195 0.8877312 0.017750915
0.013475134 0.3002882 0.22853984
-0.18985483 0.9369793 0.12108317
-0.21543887 0.6508255 0.23150308
-0.012428593 0.82354784 0.13898763
0.07624355 0.27662253 0.1485865
-0.28464755 0.24359597 0.09826614
-0.08942958 0.53905547 0.24558115
-0.3813124 -0.26812586 0.19240242
0.07401562 0.1078226 0.10557365
-0.08196239 0.38340884 0.10103489
-0.14705782 0.5349146 0.11896503
-0.0986882 0.9165437 0.075875014
-0.23011374 1.24001 0.17834741
-0.29598093 0.9434949 0.058518056
-0.4711203 -0.46029 0.06407292
-0.055841982 0.91020817 0.2747966
0.02268213 0.24359861 0.1638426
-0.0914018 0.88955176 -0.36709186
-0.24848166 0.90681386 0.24968632
-0.09336528 0.6037071 0.08418961
-0.07476412 0.8498819 -0.2197814
-0.20922227 0.78824353 0.2624374
-0.023703054 0.82254285 0.21578498
-0.07134792 0.7448312 0.13632801
-0.26620468 1.0095667 0.19245234
-0.07414907 0.84136486 0.21114856
-0.2142337 1.2349036 0.22758651
-0.18987136 1.2174045 0.07946016
-0.15166435 0.7611743 -0.33844277
0.14398089 0.09100741 0.12028102
-0.07515496 0.924598 0.19119568
-0.2065028 0.8281766 0.058816634
-0.00089114445 0.9065177 -0.011393393
-0.09139947 0.3596558 0.2226601
-0.10432685 0.9673298 0.16864079
-0.079057164 0.53587294 0.18376392
-0.09405889 0.42536616 0.26480374
-0.16048625 1.1232257 0.10984035
0.10268948 0.3325677 0.16192041
0.10245462 0.29384512 0.18504593
-0.06550309 0.80600226 0.07258777
-0.12313439 0.8321663 0.07403069
-0.33518595 0.9428511 0.08196885
-0.21053676 1.0073385 0.13046867
0.08361332 0.20716944 0.10170697
-0.27524763 0.775051 0.24873303
-0.2646022 0.43697706 0.114220664
-0.18654321 1.124651 0.18901037
0.0034768796 0.62497413 0.15079981
0.19723812 -0.45621938 0.23550074
-0.24500664 0.7803536 0.17669311
-0.0596719 0.8936814 -0.43149567
-0.03477753 0.36939293 0.22269952
0.04437202 0.20641333 0.16379845
-0.144241 0.51768035 0.28657544
-0.11984063 0.40388644 0.29834062
-0.057468392 0.8502481 0.24868515
-0.3831175 -0.41211605 0.2662053
-0.13606098 0.34701046 0.14998707
-0.17315847 0.5774205 0.27049822
0.14924406 -0.063050576 0.22609302
0.0033148867 0.86929196 0.24451753
-0.09891145 0.9258795 0.27216265
-0.035218485 0.8412998 0.17518938
-0.21036312 0.3678894 0.25204796
0.0667812 0.42287868 0.19672905
-0.20695454 0.40921813 0.27541664
-0.27371368 0.23009245 0.14763975
-0.13836974 0.8430848 0.26239967
0.001600612 0.38571507 0.12720552
-0.14032084 0.57409334 0.18872255
-0.25752717 0.06976658 0.16072309
-0.22781688 0.23653768 0.15431663
0.0121464655 0.92091954 0.0319802
-0.2649122 0.5668204 0.11536114
-0.24213623 0.2774594 0.21735072
-0.03254911 0.9313427 0.017454833
0.12292467 0.24750373 0.15593296
-0.1971952 0.72369957 0.12946738
-0.29695833 -0.0009670226 0.12400861
0.20902985 -0.29404134 0.23725697
-0.009808373 0.45558196 0.23918818
-0.062026583 0.59426796 0.058232624
-0.03774565 0.73426044 0.16913211
-0.0054434775 0.516974 0.17503056
-0.06683761 0.3962471 0.2924705
-0.18393415 0.48754206 0.1384727
0.018361274 0.4484926 0.19334358
-0.16110593 1.1734593 0.18439586
-0.18016174 0.77767545 -0.26162797
-0.24871154 0.803172 -0.05062268
-0.20400581 0.50046885 0.1864114
0.03324118 0.56757826 0.06854491
-0.28113973 0.824718 0.24276972
-0.009287078 0.8546733 -0.059503227
-0.21406499 1.0008152 0.22536919
-0.002766975 0.20351025 0.17769247
0.13795 0.13622147 0.14615299
-0.07644898 0.4375522 0.31426257
-0.112127945 0.71686536 0.104819745
-0.16877073 1.2479506 0.22062346
-0.30155867 -0.000746119 0.18530571
-0.010049802 0.55153036 0.13309953
-0.27687225 0.15482393 0.19094348
-0.027022861 0.5086268 0.13555682
-0.025442705 0.6293747 0.18288915
-0.1607799 0.82927966 0.29829672
-0.030552233 0.7051964 0.06538118
-0.38453597 -0.10799864 0.18023843
-0.19246066 1.2079456 0.24916524
-0.20426907 0.46590152 0.22490196
-0.08797786 0.5860703 0.26141816
-0.17468059 0.39111608 0.23351839
-0.20219198 0.18815352 0.17090826
0.1852639 -0.40267742 0.2883988
-0.17968169 1.0449926 0.20853263
-0.3450168 -0.20249648 0.22900018
-0.06439169 0.8019699 0.19595015
-0.2552668 0.6770547 0.2462855
-0.16937041 0.84436214 0.077947214
-0.24864185 0.82519555 -0.08845471
0.18529284 -0.1272845 0.18112072
-0.16701293 0.8058903 0.17520255
0.12855873 -0.07440731 0.17254528
-0.17101169 0.6221098 0.06938517
0.040969465 0.14017156 0.12380414
-0.3288958 0.96427697 0.16256988
-0.21784598 0.5803889 0.11767247
-0.123019524 0.77652216 0.17048335
-0.0047014467 0.99185985 0.20141417
0.06966855 0.14304918 0.19853549
