0.064481094 0.04443533 0.17591992
0.0030774195 0.80321324 0.17607427
0.027628463 0.31962052 0.19259909
-0.0015092825 0.97804385 0.077595845
-0.05058617 0.44674814 0.1496104
-0.007937439 0.6128196 0.28508654
-0.22002017 0.8680852 0.17943153
0.031097554 0.54097664 0.17370327
0.11774449 0.21286473 0.1247342
-0.30311376 0.98824465 0.15796869
0.17992556 -0.09506185 0.21506023
-0.042420734 0.3509496 0.14625636
-0.016065763 0.42247176 0.11871767
0.28920382 -0.46417844 0.1505753
-0.11866118 0.87056255 0.070386715
-0.22869876 0.6504394 0.28048128
0.081096545 0.48721963 0.08467392
-0.2539166 0.61218846 0.11180493
0.15719533 -0.04135645 0.15013503
-0.083895765 0.41611987 0.17778218
0.1767003 -0.3700081 0.22939834
-0.2872433 0.3537712 0.13514477
0.091616094 0.24987607 0.19525307
-0.18858293 0.6771184 0.26023686
0.038289383 0.5191897 0.2150424
-0.043652117 0.49746317 0.076305196
-0.20852962 0.3066604 0.10630192
-0.25681633 1.015223 0.15347004
-0.15012826 0.7190339 0.2742282
0.03767338 0.405308 0.23255879
-0.23713818 0.47981906 0.26219916
-0.17919151 0.22982621 0.16281566
-0.19309005 1.2306767 0.16317329
-0.0017960907 0.78693926 0.25247243
-0.23842692 0.94689775 0.14918277
-0.3788125 -0.157478 0.16920717
-0.022746928 0.37446147 0.27936727
-0.2132577 0.5982094 0.22829093
-0.1391618 0.43243742 0.10199979
-0.06863986 1.0331336 0.17025518
-0.15358725 1.2464311 0.14771035
0.017213412 0.6608105 0.2257797
-0.061037295 0.8643026 -0.03516554
-0.12560804 0.86439514 0.19740623
-0.014978798 0.91248864 0.2530453
-0.3035084 0.06459293 0.18045402
-0.3266501 0.8977529 0.055592768
0.102937475 0.2080982 0.18446183
0.08184695 0.18477434 0.14438337
0.00837609 0.16281739 0.15137789
-0.059095055 0.8760703 -0.19194904
-0.3175705 0.12596321 0.16861093
-0.1628785 0.7501053 -0.22723803
-0.15540533 0.82728195 0.21874216
-0.07533334 1.0066674 0.23854142
-0.20586205 0.8008549 -0.17160562
-0.20705155 0.2039336 0.1301063
-0.20774624 0.77555454 0.14248738
-0.17725466 1.0780249 0.13715804
0.04557319 0.32819694 0.112242274
0.054830696 0.16153558 0.16276985
-0.088278115 0.9695558 0.25724044
-0.06758113 0.3681423 0.1842692
-0.2789657 0.13515142 0.14223933
-0.17329821 0.889554 0.096151024
-0.24267381 0.82560205 0.083919436
-0.0017413595 0.48832172 0.21007067
0.018730462 0.6135653 0.24699602
0.009427053 0.55328166 0.08405312
-0.08128604 0.5649878 0.3078851
-0.25752032 0.2727806 0.1769811
-0.31959474 0.87577784 0.1860027
-0.07734038 0.5953966 0.130912
-0.16390848 0.3774599 0.2801301
-0.092047 0.8490709 -0.26057327
-0.16704498 0.46273988 0.31252867
-0.3900078 -0.3250795 0.2007719
-0.20769787 0.5078902 0.23306698
-0.038531117 0.58420813 0.30199805
-0.23602928 1.1909521 0.21200693
-0.11080258 0.8336017 0.29692137
0.16499823 0.0014045625 0.17821467
-0.014131615 0.6649682 0.14089483
-0.24008515 0.87654686 0.09015927
-0.030043926 0.6835004 0.18115807
-0.04316839 0.75053596 0.076503284
-0.084759414 0.8724079 0.28318775
-0.0061101727 0.40834183 0.21795857
0.12874532 -0.012772368 0.12425034
-0.08423946 0.790882 0.3002779
-0.22865276 0.8307564 -0.020959973
-0.04454962 0.83416224 -0.16257289
-0.09638357 0.81590354 0.25304076
-0.11759411 0.38025028 0.18473625
-0.13918361 1.0435586 0.20961696
-0.17350885 1.1870762 0.064110324
-0.05549993 0.8011092 0.24305402
-0.15684205 0.9314625 0.088212
0.0328158 0.55570936 0.123180375
-0.27641407 0.8349435 -0.032598186
-0.04084514 0.40782183 0.25210333
-0.18115537 1.2846206 0.14600238
-0.14806041 0.7304784 0.13901141
-0.12429015 0.89933836 0.1074539
-0.36423206 -0.07117387 0.20279962
0.22627513 -0.41694206 0.25404823
-0.35105926 -0.26571554 0.22889146
-0.16683063 1.1762255 0.24618454
0.29386377 -0.45843193 0.110671714
-0.16672489 1.1372759 0.049616814
-0.21429075 0.72844744 0.16908604
-0.013664089 0.82859945 0.26406503
-0.19507056 0.53135526 0.15208137
0.006981386 0.7040648 0.25004715
-0.046534047 0.48078758 0.23060729
-0.2079958 0.45978832 0.29064226
-0.08606483 0.46943808 0.27235824
-0.31923616 0.8542528 0.044779338
-0.27991265 0.83863974 0.11425978
-0.18539335 0.78866184 -0.2144318
-0.04419341 0.40736014 0.19576526
-0.13353865 0.7319243 -0.46446252
-0.100829735 0.7766106 0.21833766
-0.18324453 0.66621065 0.07310516
-0.042784214 0.6424321 0.30100057
0.013332942 0.95138633 0.18908119
-0.17216998 0.76770896 -0.17217574
-0.22829725 0.7517813 0.09360281
0.19680628 -0.41865373 0.21120882
0.023696126 0.619737 0.19998944
-0.14021498 0.34363097 0.25407144
-0.100587316 0.4580258 0.115061596
-0.10121286 0.320975 0.24656215
-0.27899763 0.025796346 0.15174134
-0.40687543 -0.34706587 0.23917195
-0.10864973 0.949005 0.09268315
-0.13326833 0.4671175 0.19113289
-0.14237455 0.9663677 0.20467788
-0.1808819 0.69485945 0.30669758
-0.25539035 0.82347167 0.18885937
0.27066368 -0.46255735 0.19056872
-0.15211922 0.75486255 -0.28765044
-0.062170744 0.35527617 0.26593912
-0.17657207 1.0848196 0.051430218
0.069548585 0.05572781 0.13152468
-0.16780275 0.9969702 0.23274526
-0.11319567 1.2151959 0.14705512
-0.07090299 0.7660431 0.05314647
-0.008658083 0.42238015 0.1619533
-0.26301536 0.062023155 0.113359794
-0.22443621 0.8073931 -0.12731686
-0.26598218 0.98200005 0.1273931
-0.026899958 0.68288946 0.22829679
-0.12095986 0.2867608 0.2194508
-0.15575576 1.283082 0.11047779
-0.27785507 0.9487648 0.17924032
-0.39681646 -0.28846478 0.23358381
-0.11527004 0.4243911 0.21126555
-0.009303456 0.76568687 0.14876525
-0.3456139 -0.23368178 0.19691534
-0.16572087 1.2057812 0.12464299
-0.23745275 0.43398637 0.24912487
0.19973257 -0.335526 0.21422625
0.08714734 0.31492126 0.11995125
0.11059424 0.12029217 0.10217227
-0.13541023 0.5553534 0.23831044
0.07897503 0.49613386 0.1743345
-0.007902669 0.20272529 0.13846572
-0.19305387 0.61462045 0.15283382
-0.039147258 0.99145365 0.08388584
0.12072797 -0.15115932 0.22129911
-0.05527091 0.6583036 0.25742185
0.2753789 -0.45844698 0.07929079
-0.012650108 0.8782634 0.029112088
-0.29046738 0.94384444 0.13609102
-0.22665676 0.7752453 -0.09473513
-0.3291606 0.16102251 0.12824541
-0.12205891 1.0011373 0.23630254
-0.27302015 0.4803009 0.17951846
-0.12894663 0.665856 0.09902166
-0.054652363 0.9853543 0.16744144
-0.27433854 0.10658117 0.18712933
-0.15261659 0.6511748 0.16217627
-0.38785458 -0.20844752 0.1833613
-0.12536475 0.5777067 0.11869994
-0.29677784 0.091492414 0.08532111
-0.04542128 0.45072666 0.27221233
-0.02987876 0.94209623 0.09582268
-0.13999179 1.2865403 0.17059849
-0.2852325 0.1804638 0.14128229
-0.025159806 0.89277375 0.085737206
-0.24128258 0.5668926 0.27075794
0.18935862 -0.45885503 0.3088771
-0.054300092 0.50062895 0.27109396
-0.16596961 0.64236486 0.11720702
-0.10484131 0.72113085 0.26890457
-0.011130057 0.59274364 0.073565744
-0.2447668 0.38268206 0.18745759
-0.023929868 0.27292573 0.12748134
-0.12111448 0.53979963 0.15936708
-0.057508193 0.5811727 0.18745762
-0.29622924 0.30519128 0.11593679
-0.0895904 0.33070976 0.15859416
-0.0902303 0.7088542 0.31084126
-0.08570203 0.5095552 0.08346646
-0.024331562 0.69697225 0.28342605
0.005346016 0.9336109 0.0708953
-0.15808308 0.5502458 0.31595176
-0.24783847 0.52390087 0.24355578
-0.2493661 0.8327372 0.028820692
-0.24799946 0.90335774 0.16128051
-0.19909245 1.0743922 0.17399916
0.006301826 0.41227138 0.26980376
-0.1300303 0.5281403 0.073393196
-0.23411387 0.54698366 0.16059849
0.1916658 -0.19485843 0.235176
-0.1403207 0.64745474 0.23181215
-0.21899936 0.45209265 0.14382076
-0.2378766 0.70601845 0.09968883
-0.2541917 0.86833 -0.0037312766
-0.21456805 0.9039548 0.21457781
-0.13653332 0.95795083 0.25287747
-0.13718945 1.0099266 0.18301818
-0.36971885 -0.12351109 0.21987931
-0.079772115 0.8771869 0.18640608
-0.023544587 0.6953832 0.11225188
-0.15123612 1.1621107 0.14603537
0.075865746 0.32666183 0.20522718
-0.23210368 0.3558651 0.1552088
0.023228962 0.51095104 0.13030061
-0.24190652 0.93783826 0.2013115
-0.23979694 0.7504101 0.27946842
-0.22583273 1.2609155 0.1521029
-0.10911532 0.8592028 0.23927838
-0.26233333 0.4229045 0.2019682
0.011839569 0.74539536 0.23290563
-0.058413073 0.71422625 0.25951815
-0.28506473 0.93369806 0.23441158
-0.26357055 0.5950836 0.15234205
0.012989151 0.9098371 0.11321744
-0.28091282 0.7498703 0.20807245
-0.0057840403 1.0083982 0.11646362
0.01197065 0.6642976 0.18100247
-0.09958632 0.6757153 0.27037656
-0.3038128 0.91410875 0.108130656
-0.19212872 0.6481712 0.30455855
-0.18388149 0.33418906 0.24621066
-0.11590326 1.1827385 0.17319757
-0.11047986 0.9289137 0.13944101
-0.088957034 0.6855494 0.076504484
-0.19784638 0.95277214 0.2039465
0.1785284 -0.34018946 0.26363894
-0.12986737 0.87779546 -0.39979607
-0.0038780975 0.6569717 0.2684852
-0.04146084 0.47043002 0.31412062
-0.1506561 0.26923704 0.14706564
0.104742855 0.16012561 0.18455932
-0.22522956 1.0270076 0.18557447
-0.19903953 0.66457343 0.15449715
-0.0063058874 0.65933836 0.063583136
-0.089821726 0.48407707 0.32253116
-0.06150759 0.7097683 0.09915577
-0.13008592 0.39054775 0.23789793
-0.33484346 0.07930551 0.1556533
-0.02574509 0.9559995 0.045617133
-0.21181172 0.26767933 0.18326606
-0.172502 0.7528565 0.166673
-0.183002 0.7842131 0.23063463
-0.11595842 0.81524324 0.20078398
-0.010691399 0.33398902 0.25011933
-0.040124916 0.57217073 0.10431678
-0.29596895 0.08401045 0.13523237
-0.03654142 0.87013197 0.21438965
-0.016797196 0.5411418 0.29327804
-0.25775653 0.2874606 0.09745306
-0.3222618 0.9701768 0.11073485
-0.12357047 0.9047358 0.22937402
-0.3011402 0.04016976 0.09318296
-0.25153208 0.6168995 0.24879083
-0.09665279 0.51588404 0.286447
-0.22514777 1.1521788 0.18579452
-0.16508561 0.5627198 0.1478003
-0.090652704 0.6612432 0.16778895
0.03629487 0.49168867 0.16985059
-0.2969185 0.85962903 0.006198877
0.058664758 0.23218465 0.2101711
-0.19807819 0.7201066 0.071711004
-0.11186178 0.74909025 0.3072232
-0.21868978 1.0507134 0.13417038
-0.3396005 0.905064 0.15042533
-0.24902868 0.87186533 0.045948096
-0.15484306 0.68617845 0.13737915
-0.15976684 0.40503263 0.19083971
-0.24820337 0.1875484 0.16035403
0.25729695 -0.43470854 0.14752284
-0.22291079 1.178735 0.110378355
0.027100377 0.2777245 0.14217915
0.013719995 0.7053729 0.2030628
-0.4419324 -0.45954332 0.2110182
0.015097372 0.58216286 0.17062709
-0.3041609 -0.03972274 0.15644267
-0.19426402 1.1844363 0.15169996
-0.29573542 0.7946482 0.20423344
-0.029369328 0.91434133 0.13266748
-0.35073617 0.9401629 0.12446994
-0.110019185 0.9044242 -0.46363604
-0.12912583 0.87966007 0.28266636
-0.19143456 0.7336075 0.25715083
-0.42440462 -0.41523957 0.22723378
-0.25709128 0.5681753 0.22690812
0.05541095 0.4703099 0.2104932
-0.098625466 1.0082879 0.14625189
0.21800551 -0.4613041 0.1935981
-0.036497228 0.23829238 0.1506499
-0.2389642 0.5300969 0.11769721
-0.09323107 0.46004772 0.15559137
0.10474059 0.026341734 0.11829378
-0.13498811 0.8282846 0.15818569
-0.3727371 -0.37036753 0.2346706
-0.24890327 0.80055606 0.2787488
-0.13888147 0.7458914 0.2400783
-0.36229992 -0.0040582535 0.13867307
0.005845429 0.23926927 0.119495615
-0.050497994 0.49386597 0.18001567
-0.17230344 0.52898407 0.25868237
-0.031074092 0.5938257 0.14959827
-0.16149454 0.70571184 0.09811531
0.038855627 0.33001125 0.23689944
-0.12518182 0.52392626 0.20570187
0.10394905 0.115837544 0.18845773
-0.16147289 0.30760568 0.11866653
-0.20239936 0.8710813 0.062474128
-0.15310702 1.1135101 0.17146158
-0.11744486 1.1791677 0.11777978
-0.017443836 0.5158037 0.24882206
-0.16804191 0.6174495 0.20010239
-0.11385018 0.7609662 0.12369446
-0.09715355 0.5439286 0.120436564
-0.1721979 0.84908056 0.18517247
-0.05934204 0.83991325 -0.21410823
-0.123897076 0.87384534 -0.4388262
0.21042171 -0.36699012 0.25639224
-0.0910379 0.79156166 0.15404986
-0.21012294 0.49884236 0.10758332
0.03809259 0.4465926 0.24621776
-0.05812671 0.9613172 0.20761053
-0.22906363 0.45318192 0.18920243
0.016052503 0.9430878 0.14617816
-0.36656517 -0.06063562 0.15161383
-0.26477867 0.80644774 -0.0065511204
-0.033136345 0.73892987 0.11999879
-0.05840101 0.9034953 -0.021992572
0.059913687 0.28396624 0.22187111
-0.03699197 0.833827 -0.11206837
-0.14880022 0.7765178 0.20690177
-0.2286988 0.8287201 0.24477506
0.22853538 -0.46325564 0.14882499
-0.39136326 -0.23311903 0.22421187
-0.24794814 0.22776869 0.20708652
-0.030412216 0.42204285 0.3039252
-0.19662365 0.2785954 0.22505443
-0.16167358 0.76885045 0.2735808
-0.2573489 0.6084876 0.20349605
-0.12078454 1.2784338 0.13160384
0.03272615 0.35708675 0.16241719
-0.28466177 0.20165077 0.19443867
0.055419557 0.4495255 0.16311213
-0.15993261 0.5000398 0.0991607
0.016931526 0.7856486 0.21330777
-0.22766218 0.7550067 0.23424873
-0.27744406 0.521541 0.14470145
-0.17560986 0.591689 0.107177846
-0.023968125 0.94123626 0.17745402
-0.12833077 0.68355465 0.18656251
-0.13352671 0.73104525 0.19506502
-0.2295685 0.31723475 0.18670806
0.244783 -0.4588993 0.10806136
-0.041791826 0.9166393 0.21707916
-0.049573783 0.52632725 0.21765733
-0.0060134083 0.49641478 0.2913102
-0.23209241 0.94584155 0.2458032
-0.15354957 1.2129228 0.18150645
-0.14195491 0.74818695 0.087270886
0.021704398 0.45983964 0.13132831
-0.11297579 0.6298979 0.13876349
-0.10111224 0.855849 0.11995248
-0.044543914 0.5455526 0.066930145
0.11472242 0.16480699 0.11318338
-0.21020874 1.1601275 0.071063325
-0.10633732 0.3681207 0.27444428
-0.08396661 0.83468425 0.082447074
0.1631197 -0.30923098 0.22696221
-0.06671555 0.6134712 0.2221938
-0.23764898 0.1815111 0.20646164
-0.20182928 0.7368959 0.3007413
-0.063896894 0.8524274 -0.079738304
-0.010131059 0.8722322 0.14016107
-0.13227329 0.69742906 0.3141272
-0.11881876 0.81162125 0.117903516
0.054057956 0.3157025 0.15692878
0.057493128 0.52897346 0.08258197
-0.33543658 0.024879726 0.17066988
-0.24243718 0.689247 0.15008569
-0.1852848 0.9574952 0.2488122
-0.3194891 0.1780474 0.17007151
0.025505923 0.16657619 0.19787824
0.029573016 0.12467738 0.17367423
-0.032002777 0.31527248 0.11387955
-0.23646127 0.4112267 0.15048057
0.1902973 -0.17623621 0.19491357
-0.18459655 0.73786783 0.21040592
-0.05902003 0.8301406 0.28924635
-0.25271267 0.9201802 0.11299224
-0.17358425 0.4583521 0.099436015
-0.10744864 0.6863605 0.13777323
-0.04406406 0.66417146 0.095521614
0.07068205 0.1543015 0.101228215
-0.2119284 1.2521513 0.1985851
-0.29624504 0.9067295 0.15972067
-0.27257085 0.2734378 0.13794562
-0.1545462 1.067234 0.17550442
0.031788737 0.57284844 0.22129509
0.017407319 0.891853 0.066790774
-0.015828965 0.4663173 0.103967674
-0.15434808 0.29990238 0.23080853
0.0109707285 0.3621034 0.20915064
-0.009449529 0.47089165 0.15797615
-0.045132875 1.0181265 0.20454231
-0.2077207 0.41622794 0.21718648
-0.2445702 0.7460125 0.13574833
-0.07379366 0.8826109 0.09433377
-0.27986526 0.9592604 0.087217286
0.10734859 0.04821358 0.15580711
-0.18521349 0.50613284 0.31074417
-0.31854558 -0.08565031 0.16824882
-0.09871513 0.41539967 0.13164654
-0.21002868 0.8082649 -0.070532575
-0.06511374 0.8215721 0.12770364
-0.091291204 0.6300372 0.26328036
-0.14706284 0.5708504 0.07497199
-0.16003084 0.90609115 0.14025435
-0.12139729 0.47498375 0.07561724
-0.16540717 0.7964188 0.08793476
-0.32416603 0.21223164 0.12924904
-0.015190294 0.59167266 0.21128897
-0.25215966 0.5159788 0.19845599
-0.09681333 0.65441674 0.31252235
-0.03450659 0.89348423 0.17433284
-0.13095373 1.1527944 0.077254236
-0.08285411 0.89500004 0.1449532
-0.27371126 0.88259065 0.12542412
-0.15959945 0.9438442 0.17105846
-0.035839763 0.8400122 0.09745754
-0.13452086 1.198375 0.07991448
-0.11962892 0.46245852 0.23722842
-0.14734165 0.67387927 0.27191204
-0.28947207 0.87768364 0.08081299
-0.19302765 0.25822398 0.12540945
-0.23321417 0.9800123 0.17887682
-0.13592641 0.49603385 0.32551092
-0.2019229 0.6778493 0.110799834
-0.31639493 0.22885484 0.17133951
-0.027895216 0.5505187 0.17832254
-0.21432182 0.35786486 0.10847185
-0.2367734 0.85358864 0.13527197
-0.21950687 0.4574547 0.102243766
-0.34378457 0.013698472 0.094632186
0.06453764 0.5327299 0.13361308
-0.16032583 0.4396218 0.22243914
-0.07744542 0.28831965 0.2225169
-0.10066901 0.94544244 0.22013973
-0.05052744 0.52929693 0.10759789
-0.020523645 1.0215237 0.1606217
-0.20080316 1.1152713 0.06896107
-0.21632597 0.7011955 0.23231423
-0.35043097 -0.024128601 0.1848605
-0.034864035 0.87152255 0.2704491
-0.29072887 0.8209847 0.024825068
-0.16441089 0.70025325 0.22711973
-0.057018973 0.5205789 0.31372866
-0.19387534 1.2526846 0.11406683
-0.084015824 0.65140706 0.1136335
0.0024273265 0.32282364 0.15015702
0.035750084 0.4839008 0.09473796
0.23017606 -0.46314752 0.28447765
0.14538018 -0.17041019 0.18954104
-0.13184512 0.6351365 0.28025517
-0.037832364 0.7859791 0.284334
0.19116545 -0.27285445 0.20963089
-0.3315552 0.11482631 0.12093231
-0.12849577 1.1460023 0.19475737
-0.25863984 0.65273833 0.20347556
-0.11321045 1.139427 0.15232751
-0.12701806 0.7646662 -0.42941886
-0.11944405 0.6000688 0.30983576
-0.30781293 0.8223261 0.16532356
-0.054180548 0.54921526 0.27158588
-0.09637135 0.7661555 0.26413023
-0.23511723 0.13862246 0.17949614
0.16246735 0.01028659 0.13297775
-0.29766327 0.8826747 0.23385596
0.008837463 0.9879364 0.1551634
-0.207172 0.8226757 0.20558923
-0.31695676 0.2619635 0.13080204
-0.24549976 0.6409031 0.1561318
-0.0354239 0.6317804 0.05896932
0.18510136 -0.14363864 0.22793269
-0.155135 0.7804707 0.13145564
-0.16172019 0.2650578 0.19368464
-0.20413223 0.22725537 0.20693341
0.1497969 -0.25629556 0.22002506
0.061526716 0.09439986 0.18912572
-0.052488092 0.8665526 0.13312519
-0.1443243 0.391402 0.1399014
-0.101529166 0.28974962 0.17545283
-0.07677585 0.7819634 0.105512545
-0.26824367 0.4816847 0.12611948
0.044064716 0.08994439 0.14949912
0.0972442 0.06710007 0.19401146
0.17199925 -0.04797721 0.19477504
-0.17320794 0.3646562 0.17089936
-0.32023358 0.9209571 0.20174989
-0.060672015 0.5526506 0.14693834
-0.034087576 0.45004648 0.19567192
-0.23611525 1.1927565 0.16403782
-0.022154897 0.63556653 0.22783396
-0.21336961 0.8308753 0.29000527
-0.2788357 0.39718723 0.15864454
-0.078301206 0.61784184 0.17645094
-0.27009308 0.8991506 0.2005898
-0.07092885 0.8415905 -0.13001472
-0.17408344 1.1622982 0.10380071
-0.3350829 0.06811358 0.095844
-0.1827771 0.82448554 0.25634626
-0.06548746 0.32436812 0.19774427
-0.091096744 0.73190993 0.22282706
-0.07434361 0.33114272 0.11607529
-0.058367573 0.6922966 0.14131123
-0.1425415 1.1040074 0.07835744
0.078961745 0.36931175 0.18123761
-0.28674906 0.25361562 0.20269811
0.11529965 -0.09988319 0.21721333
-0.25444585 0.33256492 0.108661905
-0.14720032 0.3083341 0.17461395
-0.089070186 0.83920443 0.16296224
-0.33712602 -0.035689395 0.120924205
-0.019302472 0.86369276 -0.017181195
0.0011117377 0.57426095 0.2655812
0.17604348 -0.4568475 0.27375153
-0.19745454 0.75517017 -0.19630247
-0.26411813 0.32122838 0.15886748
-0.11428 1.2186675 0.20605576
-0.22507218 1.2204144 0.12839767
-0.07239933 0.46291924 0.078477226
-0.020161144 0.32750717 0.1965206
-0.039773345 0.8738524 -0.1038794
-0.2978242 0.19103053 0.09765023
0.1523638 -0.17189991 0.2460372
0.10582237 -0.03904616 0.16441406
-0.13629608 0.6004896 0.25759974
-0.25764894 0.91928583 0.06668106
-0.25858533 0.16078639 0.0979009
-0.18186715 1.0298522 0.15902816
0.013887452 0.29251397 0.10913791
-0.2679274 0.55697596 0.1820326
0.14179465 0.040929668 0.103905275
-0.1930652 0.78491104 0.30140483
0.034219258 0.18928087 0.116770275
0.016408648 0.25540933 0.2178505
-0.07894522 0.8951235 0.2317524
-0.23743238 1.1540145 0.14050849
-0.19518438 0.38680655 0.13704386
-0.3151023 -0.052077424 0.2047579
-0.26108193 0.8527006 0.26269692
-0.22524366 0.15477541 0.13138105
-0.17664391 0.40653473 0.09949754
-0.16481301 1.2341592 0.083909035
-0.28385276 0.78165174 0.15577981
-0.06922464 0.28210253 0.13553748
-0.30258292 0.843163 0.21024087
-0.42367426 -0.45255646 0.12937513
-0.21385784 0.60440564 0.28614807
0.17136163 -0.087109655 0.17018864
-0.21129261 0.77826875 0.064308956
-0.059889883 0.7435427 0.29644912
-0.1855587 0.3184161 0.19759521
-0.25012082 0.20557368 0.107055545
0.15143028 0.046253964 0.1508981
-0.058984 0.68505824 0.30282614
-0.42531407 -0.4167714 0.16721487
-0.2302607 0.29328603 0.14152452
-0.04410021 0.60756814 0.2612242
-0.28545326 0.3609422 0.18518329
-0.20670919 1.0823034 0.10041803
0.061834693 0.28311145 0.106980644
-0.23255962 0.4960209 0.15417425
-0.2132699 0.63197833 0.19137032
-0.12810665 0.87605536 0.15355474
-0.2574152 0.112946615 0.10128854
-0.2354675 0.24983865 0.10876522
0.20600815 -0.24306586 0.23390836
-0.21363282 0.89331704 0.12753433
-0.17300701 0.5371349 0.2043348
-0.12777169 0.6200658 0.09724693
-0.25152296 0.86036587 0.21657342
-0.19005743 0.5770862 0.18063799
-0.054816782 0.6739327 0.049920727
-0.2117407 0.91950846 0.0788095
-0.17658481 0.87081426 0.28284472
-0.040146325 0.3726684 0.10969415
0.027295126 0.489781 0.25404084
-0.027814928 0.96743727 0.13309151
-0.008746695 0.63527375 0.10269387
-0.179497 1.0253037 0.111387
-0.052352235 0.9122095 0.05483955
-0.12984625 1.1804998 0.22066657
-0.1283305 0.3867818 0.09911983
0.10668541 -0.0491305 0.20902106
-0.11551005 0.33072037 0.19869822
0.13192132 0.035031706 0.19213653
-0.15557782 0.5080794 0.16803524
-0.19318622 0.33239514 0.14748871
-0.19153064 1.1375623 0.14932361
-0.17581269 1.27337 0.19008325
0.021064447 0.21043256 0.2110818
-0.2269717 0.3215738 0.23159504
0.057950757 0.3690885 0.21922188
-0.2025539 0.91735196 0.16898933
-0.0451388 0.61695683 0.104642555
-0.045118593 0.78558964 0.15705991
-0.057370804 0.65600777 0.19967224
0.0068024825 0.8692642 0.1959657
-0.0040486585 0.5451647 0.21668047
-0.22067663 0.8734054 0.2720229
-0.12824947 0.9123225 -0.41620076
-0.38462567 -0.17234321 0.21653086
0.020637864 0.6124706 0.069035016
-0.016543128 0.74315596 0.26942047
-0.3071608 0.9695288 0.20621312
-0.36073488 -0.31593102 0.23141998
0.13615453 -0.20540924 0.21633354
-0.30784976 0.27811152 0.173024
0.12846747 0.18178308 0.15364638
-0.12454027 0.914621 0.18383467
-0.045844212 0.56844926 0.23438051
-0.24510631 0.793586 0.2224859
-0.46409208 -0.4586674 0.1629112
0.24659672 -0.4233647 0.2064625
-0.21941893 0.550309 0.20310214
-0.05674706 0.86815804 0.060093094
-0.1200609 0.34404907 0.110288545
0.09472141 0.0037186278 0.19489038
0.082015984 0.13329542 0.14737043
-0.2026988 0.4079079 0.17619777
-0.0631255 0.9388746 0.15571028
-0.42456236 -0.46170974 0.2669375
-0.07010174 0.92316526 0.10727291
0.13861375 -0.019018728 0.20911315
-0.13877003 1.037389 0.13475463
-0.15423894 0.91620326 0.2673555
-0.26407897 0.7209773 0.24719992
-0.12547725 0.55976915 0.2824938
0.06835161 0.22951642 0.15235375
0.04291959 0.37414187 0.12227836
-0.06854651 0.43972975 0.23066096
-0.1159569 0.30381426 0.13285533
-0.10887396 1.2517965 0.16881822
-0.19990578 0.91160583 0.2607814
-0.3839565 -0.4603516 0.23216291
-0.11391295 0.87367225 -0.32698336
-0.32546264 -0.10189699 0.21800998
-0.4047725 -0.37689835 0.1980733
-0.098279074 0.6522234 0.21840653
-0.16773276 0.35491478 0.11035031
0.22223662 -0.4167022 0.17075586
0.03153271 0.41722775 0.13368446
-0.12122388 0.69521356 0.23129722
0.017723016 0.37039536 0.25495514
-0.08036353 0.3948568 0.22964293
0.026491445 0.39835054 0.17868462
-0.34072268 0.041055664 0.13077274
-0.075874545 0.50737536 0.14374912
-0.1675197 0.6054092 0.30444527
-0.16913861 0.89226043 0.1882719
-0.35627982 -0.10854682 0.1524407
-0.123315245 0.44314247 0.32056093
-0.43392232 -0.4618037 0.0874356
-0.3850949 -0.41823673 0.20435181
-0.3064608 0.31982446 0.16011903
-0.22793217 0.69961715 0.2822901
-0.20479612 1.1582453 0.22625461
-0.25496662 0.3815466 0.11934498
0.10413523 0.071855634 0.09749001
-0.14927402 1.2168245 0.23999076
-0.18288854 0.9714412 0.10710752
-0.22059558 0.41406718 0.10394346
-0.31764758 0.86115265 0.13480061
-0.058158927 0.47800252 0.117639706
-0.05337301 0.758893 0.2398043
-0.20973885 0.82243073 0.15775548
-0.16242859 0.49138105 0.21770528
-0.074499816 0.6897557 0.22699466
-0.13165963 0.42958945 0.16208184
-0.21960227 0.51464236 0.28353304
-0.051066168 0.31908894 0.24182442
-0.042798404 0.8925222 -0.060489208
-0.25917485 0.47231823 0.22382668
-0.10725897 0.7266684 0.15953067
-0.12843606 0.5068029 0.24886194
-0.13445517 1.0891106 0.13386717
0.024913993 0.53624475 0.2609492
-0.17126963 0.8215469 0.1276601
-0.27484724 0.8594182 0.16786002
-0.13571268 0.7958105 0.25247145
-0.26436314 0.97596204 0.2286441
-0.078080855 0.9886685 0.09538134
-0.26976126 0.44738182 0.15788373
0.014384755 0.82880855 0.21906988
-0.1844095 0.993262 0.18728036
-0.17640865 0.43090594 0.13911855
0.04661136 0.23900262 0.11069411
-0.1152391 0.60365474 0.21963727
-0.3363729 -0.18437907 0.18491289
0.07581384 0.49310178 0.12967569
-0.13410273 0.7896651 0.30321276
-0.24154581 0.3882388 0.2312397
-0.020626916 0.24035236 0.19528447
-0.25520968 0.7873951 0.11176746
-0.030116215 0.28277123 0.22158223
-0.05351849 0.27414802 0.17920676
-0.10368106 0.5809548 0.16553111
0.13553116 0.08485547 0.1731121
-0.31600362 0.80649644 0.11958193
-0.1524103 0.3535717 0.20999056
-0.20352991 0.5521373 0.29988426
-0.08064618 0.63879263 0.065833375
-0.23876193 0.84473586 -0.05474975
-0.16344494 1.1364784 0.21890093
-0.14658557 0.6514262 0.3162782
-0.17600815 0.66230893 0.20567983
0.16154128 -0.22590569 0.24950933
-0.16509202 0.92478573 0.21967694
0.07834955 0.35769477 0.13587135
-0.25779605 0.34818876 0.21649414
0.022021437 0.8578487 0.11165398
0.11202547 0.28384846 0.13997969
-0.18476626 0.4343471 0.25897396
-0.19305491 1.2018049 0.20322232
-0.050988782 0.39828947 0.14547375
-0.118223935 0.7857432 0.080462456
-0.22998749 0.5919249 0.17302814
-0.08707635 0.74296993 0.08403413
-0.12755202 0.4710409 0.28429383
-0.07549271 0.75405765 0.18590093
-0.19621348 0.9654019 0.15231869
0.17858946 -0.41301632 0.25247434
-0.30150783 0.13939932 0.0934063
-0.21135247 0.7625501 -0.14582548
-0.12458192 0.6277833 0.18576112
0.08384447 0.0060480237 0.15092668
-0.18722335 0.28986904 0.15732144
0.0071818028 0.59276175 0.115971945
-0.093491286 0.566244 0.2130998
-0.21873729 0.68290645 0.19201219
-0.05045227 0.94767725 0.2586559
-0.17991823 0.8650419 0.14512844
-0.37644804 -0.4621747 0.28417328
0.09441912 0.09158012 0.1485099
0.14944363 -0.11944763 0.24182689
-0.11502859 0.5002955 0.12085961
0.015821666 0.9620992 0.11093634
-0.26499924 0.6958065 0.2009469
-0.14791575 0.94857883 0.12743476
-0.14525196 0.8550198 0.109052345
-0.072876215 0.87627316 -0.23948574
-0.18269724 0.75513947 0.10262892
0.172369 -0.27637458 0.25437653
-0.21078408 0.62839854 0.11458491
-0.009726297 0.9521753 0.23054892
-0.03762932 0.7875193 0.111609526
0.013169859 0.84668267 0.16507068
-0.0037419829 0.5145174 0.092900455
-0.05077041 0.6415583 0.14560203
-0.16045693 0.87658745 0.23544234
-0.33415174 -0.15391284 0.22519295
-0.17003414 0.5827357 0.22655982
-0.18699583 0.5442284 0.10535723
0.12591861 0.0010824047 0.16451475
-0.06587841 0.9534362 0.07022116
-0.02751641 0.7724893 0.20310518
-0.1784685 0.62766504 0.25491923
0.06778089 0.18692589 0.20572633
0.009455552 0.9106407 0.2114762
-0.24016799 0.10568149 0.14319342
-0.4075241 -0.46134275 0.17720386
-0.20601588 0.55487424 0.24575388
-0.14201161 0.42832357 0.26647136
-0.202638 0.850039 0.10498202
-0.14051451 0.7272261 -0.41950232
0.1803824 -0.22182705 0.19895294
-0.28096047 0.30862653 0.20398697
-0.12302952 0.7496929 -0.38031307
-0.20090571 0.8640089 0.22842401
-0.21948597 1.1025178 0.14450055
0.24930763 -0.46376473 0.23542008
-0.08883553 0.49712855 0.2247802
-0.17926908 0.45523918 0.18043724
-0.28635344 0.8949554 0.030312793
0.00772279 0.7474438 0.185882
-0.33871877 0.8855814 0.10081273
-0.19047579 0.78083277 -0.118771926
-0.12822567 1.2321918 0.10941799
-0.11269452 0.5381571 0.32202578
0.01600131 0.903231 0.16416153
-0.082943395 0.46131927 0.19677055
-0.17223972 0.47983325 0.26339462
-0.23152275 0.95837784 0.10371268
0.0040935064 0.4532592 0.28591505
-0.08187556 0.838813 -0.17675212
0.13353482 -0.1250601 0.18283463
-0.15716012 0.99147403 0.14670023
-0.0939205 1.0353761 0.20844683
-0.1074729 0.49716485 0.17360258
-0.033834748 0.7249673 0.214422
0.2206015 -0.38210928 0.20655103
-0.094563834 0.37193894 0.14308275
-0.16971013 0.41897807 0.30594507
-0.124223515 1.1308154 0.11231138
-0.20698261 0.7773365 0.19152123
-0.076998234 0.96673805 0.1269353
-0.2216953 1.1295389 0.10565025
-0.050412647 1.0122762 0.124782585
-0.25312096 0.8135414 0.14462028
-0.24618137 0.6589981 0.10590287
-0.23597771 0.7314744 0.2037673
-0.13683096 1.2555771 0.20720139
-0.15714772 0.74289423 0.31231758
-0.16528055 1.0659771 0.0944527
-0.08690274 0.559795 0.0822521
-0.047565274 0.8725549 -0.14977433
-0.14210281 0.46905696 0.13855559
-0.093216464 0.99144435 0.19663483
0.0029644687 0.3422367 0.11292845
-0.07516518 0.6127527 0.30860916
-0.12675524 0.9839201 0.11915606
-0.14864519 0.60404015 0.1507672
0.044892304 0.27393985 0.18452437
-0.20968807 0.80297375 0.107232876
-0.32645583 -0.13780302 0.17714542
-0.2056179 0.36251214 0.20414154
-0.10142973 0.42652863 0.08195497
-0.03812606 0.98659647 0.23973075
-0.09933187 0.87034714 -0.28987548
-0.057875857 0.42644912 0.10414234
0.06839934 0.40273166 0.15327919
-0.015607771 0.37240946 0.17340006
-0.07746978 0.7036214 0.18509138
-0.31988823 0.8335575 0.084159285
-0.0027342371 0.7113763 0.15788555
-0.066310704 0.71866953 0.050830565
-0.11211837 1.0503783 0.17092535
-0.47891855 -0.46094286 0.113942236
-0.005182896 0.28240362 0.17633873
-0.17370051 0.7027214 0.17697187
0.095025375 0.25044596 0.11186727
-0.26381958 0.72837603 0.16833487
-0.279791 0.8358893 0.063685805
-0.043812033 0.30995798 0.15740822
-0.055872664 0.88356394 0.014446695
0.010442539 0.2969618 0.22961518
-0.19526559 0.93153584 0.12081662
-0.21568269 0.64839375 0.23290814
-0.015106152 0.82177746 0.13597491
0.072278515 0.27221656 0.14984122
-0.28703856 0.24251065 0.10062434
-0.090092614 0.5374074 0.24735269
-0.3836137 -0.2697901 0.19263771
0.06801765 0.10314511 0.10852294
-0.083319955 0.38009366 0.10216457
-0.147566 0.53260326 0.1209277
-0.105450585 0.912884 0.072805226
-0.24125364 1.231056 0.18565455
-0.30100423 0.93365955 0.06065873
-0.47101182 -0.46168786 0.06270406
-0.059124608 0.90817237 0.271138
0.018759089 0.23959085 0.16534996
-0.12702449 0.88680124 -0.36457378
-0.25131768 0.9006598 0.24962743
-0.091824606 0.60161114 0.08697093
-0.095702454 0.84735525 -0.21835676
-0.21054041 0.7847779 0.2628032
-0.026010089 0.82119787 0.21306026
-0.07285774 0.7424367 0.13549796
-0.27138793 0.99995434 0.19301066
-0.076803744 0.8391664 0.20910062
-0.22432002 1.2251112 0.23445725
-0.20311251 1.211441 0.08633431
-0.13789344 0.7548661 -0.3321968
0.13750617 0.085945785 0.122712955
-0.07984251 0.9215766 0.18874875
-0.20878848 0.82200736 0.05831998
-0.014965504 0.9046867 -0.014762426
-0.09321077 0.35697645 0.224901
-0.11023876 0.9636905 0.16699988
-0.079432264 0.53388256 0.1852849
-0.095279 0.42319244 0.26670688
-0.171029 1.1181399 0.11277841
0.09863791 0.32733828 0.16318238
0.09856963 0.28883195 0.1861774
-0.06777643 0.80339265 0.06845522
-0.12640738 0.82795084 0.071587384
-0.3397377 0.93262017 0.083960354
-0.21741152 1.001219 0.13139918
0.07862388 0.20263436 0.103611745
-0.27616453 0.7705821 0.24961114
-0.2650911 0.4349163 0.116085485
-0.19578561 1.1172149 0.19316915
0.0030537532 0.62375057 0.15155482
0.19917727 -0.4596375 0.23753518
-0.24699187 0.775409 0.17780349
-0.09976064 0.899302 -0.43227342
-0.03673137 0.36651954 0.22425312
0.039962694 0.2021553 0.16607401
-0.14448944 0.5161092 0.28874207
-0.12113479 0.40082413 0.30189997
-0.059973292 0.8486984 0.24614906
-0.38648677 -0.41512877 0.26638496
-0.1377529 0.34460163 0.15183139
-0.17348328 0.57554114 0.27227738
0.14568567 -0.066953816 0.22853197
0.0005728106 0.8687886 0.24067362
-0.10229829 0.9227302 0.26918802
-0.03817351 0.83946705 0.17229724
-0.21188727 0.3653491 0.25555837
0.06368677 0.41916406 0.19776167
-0.20785014 0.40684813 0.27835327
-0.27622262 0.22878122 0.1503553
-0.14068218 0.84014493 0.26149845
0.00017453684 0.38260454 0.12775397
-0.14069527 0.5719784 0.19035074
-0.25960732 0.068207964 0.1621545
-0.23003888 0.23481253 0.15692395
0.00028228853 0.9186747 0.027736817
-0.2656175 0.5648285 0.12217572
-0.24403988 0.27554554 0.22052974
-0.04496205 0.9287323 0.01416618
0.11827423 0.24249396 0.15742274
-0.19823188 0.71957546 0.13034718
-0.29893118 -0.0029559615 0.12446087
0.20825255 -0.2975042 0.24027139
-0.011232883 0.4529826 0.24049158
-0.058052503 0.59199953 0.059392974
-0.03872455 0.732774 0.16800913
-0.005789086 0.5147915 0.17663908
-0.06848309 0.39331055 0.29469803
-0.1843957 0.48537496 0.14053386
0.01687143 0.44579852 0.1946193
-0.17101994 1.1665325 0.18852681
-0.17200722 0.77027506 -0.25583535
-0.24680203 0.79407215 -0.047247335
-0.20455754 0.49850333 0.18877801
0.044922 0.5722523 0.07819434
-0.28268963 0.8194231 0.24325323
-0.024807937 0.8527638 -0.06246434
-0.21897306 0.99356574 0.22542858
-0.00814647 0.19956972 0.18032113
0.13274717 0.13147065 0.14840117
-0.07765788 0.43525794 0.3165558
-0.113218054 0.7138935 0.10483953
-0.17916313 1.2390698 0.22615893
-0.30396402 -0.0026789254 0.18461007
-0.009238583 0.55000544 0.13463074
-0.2793075 0.15306859 0.19314161
-0.027158635 0.50677556 0.13750309
-0.025481941 0.62835234 0.18352741
-0.16242987 0.82655835 0.29805422
-0.027121518 0.70374686 0.06284353
-0.38694853 -0.10990683 0.17987429
-0.20182157 1.1981361 0.2548136
-0.20496047 0.4640992 0.22724411
-0.08866215 0.5846555 0.26289415
-0.17574468 0.38898206 0.23610592
-0.20398894 0.18553376 0.17326911
0.1874387 -0.40795428 0.29135942
-0.18513863 1.0376515 0.20741269
-0.34752196 -0.20394847 0.22943306
-0.06671791 0.8000498 0.19428675
-0.25537235 0.6739107 0.24754721
-0.17246613 0.8393123 0.07585958
-0.24707286 0.816298 -0.08562422
0.18188943 -0.13121179 0.18336752
-0.16943333 0.8020866 0.17495163
0.124372095 -0.07882334 0.17563173
-0.16833423 0.62020075 0.07235137
0.035065383 0.135639 0.12621146
-0.33336625 0.954407 0.16384912
-0.21785559 0.5778282 0.12290235
-0.12504861 0.77365065 0.17003143
-0.011487113 0.9895344 0.19690889
0.06435676 0.13847147 0.20169988
