0.060711782 0.04440512 0.18488476
0.008085221 0.8058695 0.17517716
0.027970117 0.32094264 0.19552147
-0.0015020976 0.98041224 0.07683518
-0.04815211 0.44891992 0.15169837
-0.0059355088 0.61602366 0.28543076
-0.21674044 0.86905575 0.18179503
0.033202253 0.54271054 0.1754064
0.11590248 0.21180071 0.12917553
-0.3005672 0.98634124 0.16224864
0.1763918 -0.09555754 0.22141929
-0.041252777 0.3526501 0.14843132
-0.013471659 0.42362767 0.119757354
0.28854614 -0.46276706 0.15113507
-0.11519416 0.8716415 0.06918767
-0.22419576 0.6532284 0.2822619
0.083287545 0.48983407 0.08850351
-0.2508449 0.6154978 0.11777569
0.15308315 -0.042293586 0.15607247
-0.081712596 0.41865832 0.18037736
0.17730515 -0.37103093 0.23526797
-0.28596473 0.3574801 0.1397951
0.09044838 0.25035128 0.19912343
-0.1840606 0.6801088 0.26222482
0.039080467 0.52109194 0.21649592
-0.03986025 0.49957824 0.07684054
-0.20680776 0.30879498 0.11126111
-0.25490588 1.0143803 0.15747645
-0.14556347 0.72192657 0.27589655
0.037656814 0.4070108 0.23376662
-0.23459041 0.48469806 0.26538604
-0.17641172 0.23154646 0.16748804
-0.1953162 1.2309339 0.16825636
0.0021916777 0.7899761 0.25179237
-0.23622887 0.94712985 0.1521402
-0.3773775 -0.15476342 0.17293285
-0.020856831 0.37706026 0.2819398
-0.20967051 0.60150033 0.23071402
-0.13748328 0.43443525 0.10205619
-0.06747091 1.0352006 0.1709536
-0.15637651 1.2474775 0.15213206
0.020390145 0.6637497 0.22629723
-0.062347583 0.8640411 -0.035028614
-0.12213515 0.8662513 0.19822484
-0.011188023 0.9151806 0.25160182
-0.30100095 0.06775315 0.18708315
-0.32514095 0.895491 0.06060597
0.10108561 0.20852226 0.18879744
0.08012639 0.18459778 0.14938593
0.0068028015 0.16364169 0.15720633
-0.06655617 0.87517244 -0.19052503
-0.31612217 0.129358 0.17456165
-0.161993 0.7435224 -0.22166711
-0.15146412 0.82917476 0.2201857
-0.0728123 1.0077381 0.23809177
-0.20687339 0.79402757 -0.16644558
-0.20427603 0.20594907 0.13508822
-0.2043215 0.7769926 0.14510557
-0.17724514 1.0790578 0.14051466
0.046013396 0.32868525 0.11414074
0.053152625 0.16201727 0.16874233
-0.08489619 0.97100127 0.25647426
-0.06598048 0.37043023 0.18689337
-0.27727175 0.13803607 0.14843053
-0.17119417 0.8904565 0.097044766
-0.23997721 0.8259913 0.08676435
0.0002684494 0.49048978 0.2117679
0.020157188 0.61645496 0.24773371
0.014155567 0.556224 0.08770694
-0.07740861 0.5681423 0.31050405
-0.25586262 0.27602112 0.18204857
-0.31634635 0.8758036 0.18979533
-0.07339494 0.59789395 0.13305306
-0.16175282 0.38100082 0.2832203
-0.09991874 0.84711075 -0.25793833
-0.16332546 0.46691716 0.31442237
-0.3885506 -0.3228686 0.20272788
-0.20439923 0.51150143 0.23570156
-0.035845906 0.58746874 0.303361
-0.23633102 1.190588 0.21774226
-0.10642426 0.83581007 0.29689115
0.16106278 0.0007958555 0.18424244
-0.008428829 0.6679279 0.14114213
-0.23773834 0.8766533 0.09288949
-0.02550244 0.68608564 0.18182364
-0.035790674 0.7535835 0.07502636
-0.08049624 0.87461644 0.28257343
-0.004701059 0.41052026 0.22023372
0.12462112 -0.013446937 0.13158149
-0.079780295 0.7936536 0.3000676
-0.22858077 0.82760596 -0.017936874
-0.049467266 0.83353835 -0.16148317
-0.09219025 0.8184604 0.25349408
-0.11567469 0.3829435 0.18748994
-0.13712355 1.0448906 0.21137764
-0.17740071 1.1888269 0.06934179
-0.051561296 0.8038491 0.24301901
-0.15517358 0.9332712 0.0889979
0.0378322 0.55824405 0.12529048
-0.2758473 0.830509 -0.027295131
-0.03896932 0.41040552 0.2545163
-0.1846258 1.2845967 0.151077
-0.14439856 0.7324506 0.14076936
-0.12228955 0.9008169 0.107875794
-0.36199868 -0.06907736 0.20695102
0.22821052 -0.41740954 0.25703067
-0.34960884 -0.26355255 0.23164381
-0.16589463 1.1766914 0.25092
0.2924089 -0.45685095 0.11120859
-0.16967657 1.1387391 0.054850742
-0.21050516 0.73029023 0.17163736
-0.009761682 0.83154917 0.262693
-0.19196224 0.5345089 0.15483917
0.010690311 0.70706224 0.2497667
-0.04403682 0.4834001 0.23272368
-0.20426416 0.4640296 0.2927614
-0.083504915 0.47238213 0.27467436
-0.3174467 0.8518139 0.049416885
-0.2774179 0.8381635 0.117637515
-0.18643394 0.7813629 -0.20908232
-0.042186633 0.40965366 0.19811518
-0.12994283 0.7235521 -0.45835918
-0.096791856 0.7790087 0.21912953
-0.17834939 0.6689609 0.07515848
-0.03896241 0.6455959 0.30200124
0.015971644 0.954072 0.18765968
-0.17233425 0.76189244 -0.16715166
-0.22437254 0.75281096 0.09689589
0.1973356 -0.41914594 0.21531588
0.02696772 0.6225935 0.2010418
-0.13819125 0.3466969 0.2576887
-0.09810297 0.4602893 0.11761923
-0.09974336 0.32380548 0.2504666
-0.27617648 0.02834114 0.15766099
-0.40531003 -0.3466509 0.24196294
-0.107764035 0.95084494 0.09269616
-0.13079624 0.4700848 0.19371739
-0.1397474 0.96777004 0.20590514
-0.17571124 0.69822836 0.30752325
-0.25174502 0.824443 0.1916495
0.2706856 -0.4615987 0.19170651
-0.15094051 0.7471962 -0.28149188
-0.060451582 0.3582018 0.2685749
-0.17867918 1.0848701 0.056298457
0.066576794 0.055742614 0.13969308
-0.16502209 0.9975004 0.23445776
-0.11537469 1.2169986 0.15039325
-0.061512884 0.7682992 0.05038401
-0.0066906344 0.42429984 0.1637611
-0.2607683 0.06407635 0.11968708
-0.22497883 0.8013067 -0.12252309
-0.2641729 0.98104256 0.13166422
-0.023042902 0.6859417 0.22898473
-0.11948998 0.28872842 0.2221958
-0.15973711 1.2835224 0.11405856
-0.27514637 0.9484209 0.18272139
-0.39547083 -0.28688428 0.23622674
-0.11295217 0.42729324 0.21389186
-0.004388407 0.76810896 0.14784868
-0.3439394 -0.23154408 0.19915913
-0.16819921 1.2068759 0.12910315
-0.23446865 0.43774498 0.252308
0.1996088 -0.33607644 0.21998197
0.08710933 0.31479645 0.12279461
0.10773268 0.11923413 0.108312525
-0.1320077 0.55854 0.2404943
0.08504498 0.5037378 0.17853868
-0.009426585 0.2035155 0.14336625
-0.18955414 0.61734086 0.1555897
-0.03902188 0.99345535 0.08375456
0.118755996 -0.15138368 0.2293618
-0.051370762 0.661335 0.2584694
0.27276176 -0.4557923 0.08083893
-0.011802742 0.8800578 0.028133359
-0.28836924 0.94311595 0.13991188
-0.22619808 0.7697638 -0.08935864
-0.32803816 0.16386437 0.13548867
-0.11937414 1.0021963 0.23692319
-0.26651672 0.48322898 0.18363413
-0.12530047 0.6679338 0.10071112
-0.0528049 0.9876565 0.16747102
-0.27115577 0.108783945 0.19437298
-0.14874709 0.653749 0.1638982
-0.3865379 -0.2058928 0.18635035
-0.12175937 0.5804038 0.12125422
-0.29497504 0.094501644 0.093138486
-0.043006882 0.45357597 0.27424902
-0.028556049 0.9443613 0.094984725
-0.14318833 1.2867312 0.17462543
-0.28379667 0.18334198 0.1476377
-0.02312381 0.8946456 0.08484186
-0.2368823 0.5709685 0.27255285
0.19295302 -0.46039474 0.3124841
-0.051919367 0.50351775 0.2730313
-0.16260597 0.64478564 0.11947669
-0.10041089 0.7238767 0.270078
-0.005865873 0.59590876 0.07543817
-0.24261096 0.38590425 0.19113955
-0.024539389 0.27376887 0.12942944
-0.11785972 0.5424853 0.16155806
-0.054051198 0.5838215 0.18918467
-0.2952242 0.30822217 0.1214981
-0.08821786 0.3326484 0.16152021
-0.08579023 0.71186835 0.31225115
-0.08259213 0.51154983 0.08533341
-0.020491436 0.69988304 0.28343266
0.006409942 0.9363128 0.069626406
-0.15419644 0.5534124 0.31881928
-0.24426544 0.52745175 0.24652019
-0.24796337 0.83003634 0.032377094
-0.24531208 0.9037435 0.16411012
-0.19841297 1.0750258 0.17807871
0.007531447 0.4145607 0.27156278
-0.124624625 0.5317427 0.07714021
-0.23118198 0.55045074 0.16424683
0.18974726 -0.19505271 0.24172239
-0.13628864 0.6502919 0.23359045
-0.21633983 0.4552632 0.14685324
-0.23394413 0.7075373 0.103677206
-0.2536984 0.86519724 0.0003773396
-0.21115746 0.90496457 0.21678188
-0.1329447 0.9590889 0.25337076
-0.13537027 1.0114167 0.18479002
-0.3677455 -0.12144132 0.22384197
-0.076447695 0.8789629 0.1864503
-0.016426742 0.697973 0.111043565
-0.15256771 1.1631448 0.1497159
0.07517815 0.32719135 0.20743757
-0.22993529 0.35889816 0.15920353
0.026665732 0.51338655 0.13260898
-0.23888557 0.9382031 0.20419481
-0.23459971 0.752856 0.28140154
-0.22861794 1.2604287 0.1576941
-0.105262354 0.8612414 0.23975083
-0.2608425 0.42665678 0.2060981
0.016220417 0.7483326 0.23234174
-0.0544035 0.7172617 0.2603752
-0.28110844 0.93352544 0.23754187
-0.26475424 0.5980934 0.15620625
0.015457934 0.9125827 0.11181605
-0.27707642 0.7514279 0.2111343
-0.00521068 1.0106832 0.11584751
0.017214015 0.6671754 0.18083188
-0.0952519 0.6787269 0.2718329
-0.3018012 0.9131112 0.11219971
-0.18712863 0.6514131 0.3055966
-0.1818173 0.33729893 0.2504693
-0.11745913 1.1841888 0.17612019
-0.10842833 0.9306532 0.13996604
-0.08375258 0.68798006 0.07923766
-0.19499177 0.9535091 0.2060951
0.18008101 -0.34135103 0.2697609
-0.14315118 0.8708116 -0.39648136
-0.0010636209 0.659834 0.2687291
-0.039310962 0.47307608 0.3160202
-0.14799757 0.27002048 0.15052874
0.10249838 0.16050452 0.18993077
-0.22312242 1.0265808 0.18837708
-0.19539991 0.66699314 0.15708506
0.0039244015 0.664445 0.065371096
-0.08677839 0.4878887 0.3259619
-0.056694023 0.7123804 0.09966948
-0.12790266 0.3937205 0.2407578
-0.33271098 0.08206564 0.16158818
-0.026127478 0.9578957 0.04498551
-0.21003029 0.27068406 0.1878347
-0.16889122 0.754704 0.16845694
-0.17877412 0.7863542 0.23250413
-0.11217548 0.8173362 0.20167285
-0.00970442 0.33621043 0.25282323
-0.036016144 0.57454586 0.1061091
-0.29425764 0.08697431 0.14142384
-0.032802872 0.8722786 0.21353365
-0.01518802 0.5436666 0.293467
-0.25650868 0.2900596 0.10341725
-0.320351 0.9677355 0.11535931
-0.12009959 0.9064805 0.2300202
-0.29982835 0.042834498 0.100188054
-0.24864063 0.6205203 0.2515156
-0.09334753 0.5192207 0.28879255
-0.22584125 1.1519194 0.1910377
-0.16170341 0.56550604 0.15012202
-0.086821385 0.66390234 0.16918057
0.039509814 0.4936369 0.17197888
-0.29544315 0.85617685 0.01133498
0.057676017 0.23317255 0.21491222
-0.19403897 0.72190166 0.07326469
-0.107302606 0.7518665 0.3080719
-0.21802166 1.0511398 0.13843036
-0.33719754 0.9039383 0.15474957
-0.24701229 0.87040836 0.049336866
-0.15096055 0.68841434 0.13922599
-0.1574979 0.40818638 0.193746
-0.2463439 0.19042033 0.1660801
0.25603342 -0.43370414 0.14943653
-0.22515169 1.1791124 0.115922645
0.02697526 0.27838886 0.14540505
0.018308751 0.7083472 0.2031357
-0.44025797 -0.45883435 0.21122247
0.01849027 0.5846877 0.17222989
-0.30191946 -0.037685767 0.16019717
-0.19571796 1.1850548 0.15641823
-0.2917747 0.7955853 0.207591
-0.027099885 0.916522 0.13194773
-0.34852165 0.93823916 0.12923598
-0.126457 0.8978473 -0.46071
-0.12483099 0.8814753 0.28271636
-0.186898 0.7361711 0.25897086
-0.4236065 -0.41437954 0.22785887
-0.25468874 0.57132196 0.22954628
0.054824386 0.47265452 0.21149373
-0.09762724 1.0100019 0.14757767
0.2181628 -0.46119818 0.1964785
-0.037159733 0.23962754 0.15368173
-0.23505521 0.53342736 0.12192716
-0.090691015 0.46257362 0.158104
0.10180989 0.026383318 0.12665024
-0.13181233 0.8301145 0.15932244
-0.3714718 -0.36919725 0.23602594
-0.24412861 0.802557 0.28184006
-0.13462749 0.7483641 0.24149592
-0.36068156 -0.0017285976 0.14373744
0.004874693 0.23969333 0.123220935
-0.047782525 0.49637926 0.18212816
-0.1688208 0.5325239 0.26127177
-0.02718042 0.59638107 0.15122563
-0.1580413 0.7074411 0.099912316
0.038852714 0.33153877 0.23923044
-0.12203345 0.52694273 0.20800713
0.10088992 0.1156962 0.19558063
-0.15963072 0.3089492 0.12160796
-0.19939536 0.8717257 0.06316485
-0.15304667 1.1144791 0.17479044
-0.11972199 1.1811001 0.12113658
-0.015170729 0.5183546 0.25045985
-0.16441038 0.62036 0.20208107
-0.11034326 0.76297796 0.124769464
-0.0939116 0.5463364 0.12275636
-0.16875654 0.85060906 0.1869121
-0.065301895 0.8393964 -0.2124399
-0.13722466 0.8669794 -0.4354366
0.2115668 -0.3679651 0.26118416
-0.0874988 0.7935629 0.1546707
-0.20721883 0.5020324 0.10973341
0.03767764 0.44822055 0.24681069
-0.055351637 0.96332145 0.20738669
-0.22617644 0.4564135 0.1926429
0.018184695 0.94595206 0.14475083
-0.3641026 -0.058014795 0.1558854
-0.2629951 0.80226123 -0.0016718854
-0.027703086 0.741333 0.11933799
-0.060202338 0.9045191 -0.02243222
0.059541233 0.2849254 0.22526467
-0.0407563 0.8333176 -0.11168994
-0.14487332 0.7786185 0.20828658
-0.22445104 0.8302201 0.2472697
0.22793716 -0.46280277 0.15145409
-0.3892275 -0.23105788 0.22754776
-0.24588764 0.23114154 0.21178472
-0.028314637 0.42502448 0.30607092
-0.19469795 0.28190774 0.22922525
-0.15707037 0.77135134 0.2751531
-0.25520003 0.6120167 0.20647714
-0.12428365 1.2787168 0.13467413
0.033343405 0.35825136 0.16454014
-0.28294417 0.20479472 0.20024154
0.056698244 0.45128104 0.1650753
-0.15720204 0.5030098 0.1009662
0.021696731 0.788479 0.21238402
-0.22337931 0.75725067 0.2364209
-0.2737658 0.5262245 0.14985242
-0.17179835 0.5943823 0.110048786
-0.021330893 0.94366604 0.17681459
-0.124506 0.6862323 0.18804355
-0.12965286 0.7333943 0.19661221
-0.22772512 0.32067257 0.19120874
0.24270606 -0.45769864 0.1102694
-0.03832642 0.9187231 0.2165361
-0.046685748 0.5290369 0.21967943
-0.0045382 0.4983202 0.2916113
-0.22841436 0.94605845 0.24826494
-0.15496385 1.213814 0.18577573
-0.13768084 0.7492193 0.08881433
0.02459206 0.4608142 0.13288367
-0.1091841 0.63238 0.14056945
-0.09858973 0.8576081 0.120460756
-0.039719768 0.54771805 0.0675742
0.11251468 0.16377899 0.11865185
-0.2129063 1.1607132 0.076788545
-0.1042161 0.37137458 0.27694216
-0.08148908 0.83570826 0.083435535
0.16292818 -0.31032768 0.23381631
-0.062983625 0.6164185 0.22374634
-0.23451549 0.18386588 0.21229137
-0.19663993 0.73964375 0.3027231
-0.066721804 0.85173106 -0.079394214
-0.0075642504 0.8742865 0.13812703
-0.12736228 0.7007612 0.3162554
-0.11588682 0.8133301 0.118754745
0.054088876 0.31632653 0.1596997
0.064217344 0.533244 0.08781858
-0.33314228 0.027560115 0.17598203
-0.23903829 0.69108015 0.15317605
-0.18173856 0.9581559 0.2504205
-0.3185481 0.1809684 0.17662406
0.024238158 0.1678294 0.20469922
0.027581977 0.12538683 0.18047696
-0.031798683 0.3159017 0.114441976
-0.23417726 0.41430062 0.15388606
0.18766904 -0.1764637 0.20085186
-0.18057592 0.74013007 0.21233246
-0.05484485 0.83280313 0.28840536
-0.25062615 0.9200568 0.11614396
-0.17046016 0.4607514 0.1015088
-0.10334143 0.68881 0.13927048
-0.039362103 0.6666454 0.09665045
0.068694875 0.15383482 0.10686645
-0.21306604 1.2516863 0.20429397
-0.29351848 0.9065409 0.1633727
-0.2712139 0.27640527 0.14335653
-0.15361677 1.0686691 0.17793117
0.033584014 0.57533896 0.22257967
0.019204576 0.8939556 0.064696
-0.013222812 0.46881086 0.10696101
-0.1523657 0.30331635 0.23476583
0.011811821 0.3639925 0.2115562
-0.0067824684 0.47306383 0.16005981
-0.043352015 1.0196798 0.2043408
-0.20525694 0.4197017 0.22047493
-0.24077937 0.74750715 0.13916042
-0.071743384 0.88439745 0.0943019
-0.27863672 0.957419 0.09173129
0.10375409 0.048052214 0.16337208
-0.18106714 0.5105537 0.3138314
-0.31641585 -0.08311568 0.17239672
-0.09683882 0.41762063 0.13423976
-0.2099249 0.8036463 -0.06586215
-0.06172592 0.82364184 0.12780818
-0.08728938 0.6331194 0.26460677
-0.1412786 0.57448864 0.0782876
-0.1576978 0.9072394 0.1415861
-0.11863186 0.47710818 0.07884964
-0.1630057 0.7973869 0.08796985
-0.32305905 0.21500055 0.13625613
-0.011911839 0.59443057 0.21258806
-0.24892494 0.5200515 0.20153198
-0.09239373 0.65786684 0.31372926
-0.031404305 0.8958558 0.17372385
-0.13376948 1.1546655 0.081256196
-0.080295734 0.8970292 0.14512867
-0.27123052 0.8824153 0.12872219
-0.15718651 0.9450657 0.17258003
-0.032426342 0.84177417 0.096296236
-0.13834617 1.1999316 0.08379399
-0.11693062 0.46564204 0.23968259
-0.14264104 0.676971 0.27343237
-0.28744233 0.8764236 0.0846156
-0.19071008 0.2599057 0.12919381
-0.2309322 0.9801192 0.18202075
-0.13260508 0.5004143 0.32953805
-0.19826157 0.67981416 0.113620386
-0.3152809 0.2320003 0.1776317
-0.024661914 0.553128 0.18021865
-0.21251394 0.36059904 0.11269072
-0.23405504 0.85419726 0.13796915
-0.21663529 0.4600609 0.103839174
-0.34259164 0.016091105 0.10054031
0.07281669 0.539469 0.13580458
-0.15772134 0.44294286 0.2252059
-0.07636915 0.29084992 0.22535482
-0.09769231 0.9472198 0.22034577
-0.047271766 0.5316186 0.109408736
-0.01936136 1.0235419 0.16003181
-0.20274028 1.1163952 0.07373342
-0.21197705 0.7035543 0.23453948
-0.34792212 -0.021863941 0.18932953
-0.031178981 0.8742089 0.26888192
-0.28943506 0.8176676 0.02954312
-0.1602804 0.70278686 0.22905189
-0.054189634 0.52315533 0.31547868
-0.19731545 1.2535317 0.11953212
-0.080072075 0.6539265 0.11552229
0.00300007 0.32403293 0.1526137
0.038399965 0.48601103 0.09888919
0.23230055 -0.46349216 0.28728414
0.1430102 -0.17085125 0.19651283
-0.12751107 0.6382901 0.28200784
-0.033818237 0.788834 0.283494
0.18983895 -0.27288008 0.21543337
-0.33070588 0.117555514 0.12816258
-0.1287173 1.1471355 0.19806375
-0.25560024 0.65565205 0.20645678
-0.11379697 1.1407857 0.1554903
-0.12644331 0.75683224 -0.42406297
-0.1152392 0.6032467 0.31128204
-0.30474102 0.82218754 0.16910851
-0.051327422 0.55225205 0.2734511
-0.09200735 0.76878893 0.26487246
-0.23184732 0.14059573 0.18649167
0.1587929 0.009439182 0.13915977
-0.29364526 0.8829255 0.23703259
0.01041979 0.9906442 0.15389737
-0.20349032 0.824226 0.2078622
-0.31607077 0.26496494 0.13699336
-0.243027 0.6434404 0.1594743
-0.030201897 0.63457876 0.058248557
0.18261594 -0.14406434 0.23437819
-0.15180436 0.7822093 0.1329264
-0.1589627 0.26674262 0.19790933
-0.20152067 0.2299408 0.21204205
0.14853236 -0.2569331 0.22791377
0.058046967 0.094462715 0.1978524
-0.049861994 0.8686434 0.1329159
-0.14221242 0.39402115 0.14246935
-0.10120928 0.2899732 0.17851213
-0.07296953 0.78399074 0.105575085
-0.26346624 0.48452058 0.12954235
0.04155029 0.09039946 0.15695994
0.093837105 0.0669757 0.20263067
0.16790754 -0.048676018 0.2008853
-0.17104578 0.3675949 0.17424947
-0.31663626 0.92047113 0.20543408
-0.05722546 0.55507827 0.14886092
-0.031959385 0.45241582 0.1976719
-0.23760186 1.1923773 0.16977349
-0.018703382 0.6384318 0.22884282
-0.2087514 0.8323747 0.29248178
-0.27759093 0.40113622 0.16261731
-0.07453207 0.6206109 0.17821339
-0.26671004 0.899493 0.20366976
-0.07495034 0.8404886 -0.12901115
-0.17628703 1.163578 0.10810214
-0.33332378 0.0711015 0.10242735
-0.17845935 0.8264172 0.2582338
-0.06423919 0.32691073 0.20069072
-0.08699526 0.7345122 0.22379969
-0.073481165 0.33179498 0.11659349
-0.053805105 0.6948348 0.14205989
-0.14410979 1.1057354 0.081645206
0.0779012 0.36949092 0.18333921
-0.28502774 0.2572733 0.20853192
0.11297473 -0.10011171 0.22554827
-0.25272137 0.33525956 0.11416568
-0.14568062 0.3109653 0.17799014
-0.08581573 0.8411794 0.16334334
-0.33521515 -0.03274702 0.12475135
-0.020174984 0.86490405 -0.017995916
0.0022316035 0.5768964 0.26575246
0.17845577 -0.4581766 0.27796802
-0.19707856 0.74784863 -0.1903277
-0.2621951 0.32463044 0.16373172
-0.1159171 1.2201731 0.2093918
-0.22776273 1.2205151 0.13418765
-0.070023134 0.4654775 0.08011129
-0.019208686 0.32933053 0.19934061
-0.044613168 0.87364876 -0.10421838
-0.29625225 0.19354683 0.10519558
0.15023717 -0.17242455 0.25427133
0.10219024 -0.03947337 0.17227535
-0.13242625 0.6036997 0.25937352
-0.2562192 0.9182446 0.070171654
-0.2572421 0.1631743 0.10513681
-0.1805108 1.0307245 0.16184834
0.013664197 0.2928172 0.111049786
-0.26951015 0.55996674 0.1851595
0.13778815 0.039321266 0.11034895
-0.18802302 0.7871342 0.30355358
0.03298148 0.18965015 0.121991545
0.015988518 0.25670737 0.22294667
-0.07537463 0.8972478 0.23163503
-0.23893827 1.1535106 0.14620833
-0.19286808 0.3898914 0.14022118
-0.31293327 -0.049881432 0.2088227
-0.25637206 0.85377765 0.26527792
-0.22268422 0.15713243 0.13678959
-0.17462838 0.40975708 0.10012339
-0.16883977 1.2350845 0.089181334
-0.28078505 0.7823045 0.15868145
-0.069483526 0.2823748 0.13678837
-0.29902732 0.843446 0.2136685
-0.42341417 -0.4517665 0.12987483
-0.20922723 0.6081869 0.28739262
0.16784024 -0.08762447 0.17672452
-0.20679298 0.7778892 0.066218995
-0.055864148 0.74669474 0.29637146
-0.18369572 0.32158136 0.20149007
-0.24889818 0.2080425 0.1139466
0.14707787 0.045586154 0.15706615
-0.054805707 0.6879538 0.3036368
-0.42458618 -0.4161172 0.16835958
-0.2285973 0.29601026 0.14629337
-0.040818483 0.6105635 0.26259172
-0.28418893 0.36505538 0.18992633
-0.20757231 1.0831391 0.10400517
0.061866887 0.28311962 0.10984275
-0.22926962 0.49952075 0.15726641
-0.20972973 0.6346943 0.1940461
-0.12524474 0.87768936 0.15433103
-0.25595236 0.115637645 0.1078046
-0.234003 0.252365 0.11442447
0.2047168 -0.24350017 0.24028444
-0.21110994 0.89393985 0.1298559
-0.16973233 0.5403253 0.20692116
-0.123938054 0.62235564 0.09928191
-0.24784024 0.8611815 0.21932891
-0.18661258 0.5800883 0.18314075
-0.047809772 0.67632943 0.050293136
-0.20996614 0.91963583 0.08077146
-0.1719569 0.87242675 0.28415444
-0.03830377 0.3738382 0.110214725
0.026976695 0.49199018 0.25444338
-0.026200186 0.9696549 0.13252866
-0.0027403936 0.63885844 0.10345295
-0.17886974 1.0263054 0.114481166
-0.051765244 0.91373545 0.054310236
-0.12977876 1.181568 0.22427475
-0.12671968 0.3885856 0.100112006
0.10288162 -0.049185432 0.2170732
-0.113891155 0.33339858 0.20179212
0.1281426 0.03499515 0.19906658
-0.15267375 0.511114 0.17067474
-0.19123128 0.33505988 0.15129125
-0.19237678 1.138313 0.15370847
-0.1782135 1.2733352 0.19454888
0.020304883 0.21174262 0.21752334
-0.22516987 0.32527632 0.23608345
0.057361946 0.3700241 0.22059971
-0.19990227 0.918174 0.17120406
-0.040187422 0.61956865 0.10637516
-0.041205313 0.787807 0.15711607
-0.05340101 0.6588257 0.20071837
0.010486776 0.8723743 0.19472969
-0.0013868464 0.54762053 0.21826574
-0.2160711 0.8745204 0.27402735
-0.14485198 0.90488493 -0.4127104
-0.38292426 -0.17007647 0.21999463
0.032325238 0.6188339 0.074265555
-0.012837231 0.7461474 0.26869172
-0.30368465 0.9680416 0.2097279
-0.3587013 -0.31381974 0.23302436
0.1351678 -0.20567311 0.22383285
-0.30679217 0.2814135 0.17885065
0.12608707 0.18107027 0.15851489
-0.12165418 0.9162375 0.18462428
-0.042798363 0.57126075 0.2360193
-0.24094346 0.7953159 0.2252006
-0.46299434 -0.45866394 0.16339546
0.24696825 -0.42314056 0.20890662
-0.21621785 0.55379105 0.20590252
-0.05608236 0.8681348 0.05883421
-0.11834936 0.3453592 0.111659795
0.090356976 0.0035296544 0.20295078
0.079828404 0.13317806 0.1537005
-0.20045911 0.41105092 0.17951107
-0.0608979 0.9409704 0.15573399
-0.4198884 -0.4602941 0.26463592
-0.068597294 0.925241 0.107142046
0.13528797 -0.019335479 0.2158162
-0.13801083 1.0389149 0.13697593
-0.15022025 0.9175497 0.2679974
-0.25932866 0.72339994 0.24971575
-0.12184593 0.5631045 0.2846668
0.067227066 0.22975977 0.15654173
0.044210576 0.3752523 0.1232758
-0.06610665 0.44239295 0.2329479
-0.1141642 0.30429786 0.13439086
-0.111750185 1.2533064 0.17232925
-0.19580407 0.91263807 0.262358
-0.38297036 -0.4608059 0.23169991
-0.1253584 0.8694948 -0.32359278
-0.32341254 -0.09981555 0.22181848
-0.40349057 -0.37563503 0.20019746
-0.09450915 0.65522027 0.21966377
-0.16582324 0.35737628 0.113103256
0.22149959 -0.41679627 0.17414027
0.033764623 0.41852593 0.1346125
-0.117087126 0.6979495 0.232714
0.018328808 0.37243357 0.25701833
-0.07838376 0.39761096 0.23215598
0.027544769 0.39982814 0.1805374
-0.339184 0.043727905 0.13641173
-0.072903536 0.509745 0.1458931
-0.16284887 0.6090319 0.30551207
-0.16600703 0.8936687 0.18984053
-0.3544218 -0.105506584 0.15655813
-0.12006024 0.44731927 0.3227588
-0.4334136 -0.4615308 0.0875217
-0.38423863 -0.41737306 0.2047678
-0.30547142 0.3232748 0.16535826
-0.22274286 0.70219207 0.28410333
-0.20433715 1.157966 0.2312387
-0.2534793 0.3850147 0.12366987
0.10064877 0.071104616 0.104798056
-0.14940773 1.2174509 0.24425021
-0.18180081 0.9723628 0.10884501
-0.2186492 0.41654322 0.10591925
-0.3148833 0.86096203 0.13890007
-0.05548489 0.48041463 0.11960149
-0.04920824 0.7617737 0.23983097
-0.20626777 0.8236985 0.16000775
-0.15945846 0.49478072 0.22038837
-0.07046325 0.69249 0.22803947
-0.12940371 0.4324348 0.16463396
-0.21507268 0.5181241 0.28558478
-0.0499287 0.32132095 0.24528253
-0.04624374 0.8925818 -0.060958765
-0.25605336 0.47685456 0.2275828
-0.10344981 0.72905326 0.16075306
-0.12536922 0.5099993 0.25127178
-0.13438927 1.0907321 0.13625588
0.025653496 0.5383152 0.2607274
-0.16818422 0.8228018 0.12908295
-0.27176237 0.85975707 0.1712091
-0.13131744 0.79811835 0.25370395
-0.26082018 0.97515845 0.23145556
-0.07811569 0.9911425 0.09571602
-0.26680845 0.45000538 0.1620651
0.018419612 0.8319781 0.21801296
-0.18237309 0.9938782 0.18941537
-0.17402977 0.43389004 0.14171733
0.045895986 0.23906806 0.11419964
-0.11146166 0.6065799 0.2214352
-0.33465183 -0.18230158 0.18749297
0.077052966 0.49747545 0.13326466
-0.12958115 0.79226136 0.30473995
-0.23914266 0.39208537 0.23514006
-0.020296276 0.2421465 0.19953473
-0.25146222 0.78790617 0.115294516
-0.029506648 0.28473532 0.22509757
-0.052856714 0.27654964 0.1825271
-0.100114614 0.5836154 0.16751702
0.13196722 0.084395856 0.1791932
-0.31394356 0.80594164 0.12363225
-0.15040627 0.35665184 0.21346316
-0.19927621 0.55563575 0.30222553
-0.07468636 0.6412332 0.069517076
-0.23914486 0.8399869 -0.050972793
-0.1628833 1.1366415 0.22286078
-0.14184657 0.655133 0.3177014
-0.17203513 0.6649568 0.2077139
0.16053614 -0.22654736 0.2573181
-0.16179118 0.92618656 0.22109455
0.07835759 0.35783166 0.13851967
-0.256154 0.35232323 0.22131765
0.025412655 0.85983473 0.11014347
0.11083786 0.28321624 0.14295909
-0.18193561 0.43789878 0.26181522
-0.19374126 1.2020075 0.20823124
-0.04910557 0.400121 0.14761859
-0.1145183 0.78691137 0.08092036
-0.22723955 0.59502035 0.17570579
-0.08223589 0.7453736 0.084889725
-0.12445782 0.4746685 0.28674826
-0.07155061 0.7565786 0.18661878
-0.19429904 0.96612465 0.15453383
0.18049157 -0.4143815 0.25723422
-0.2996478 0.1419271 0.101363435
-0.21113881 0.756127 -0.14035648
-0.12096076 0.63058937 0.18760452
0.07984948 0.005467194 0.15923229
-0.18546416 0.29223758 0.16143848
0.012081878 0.5955343 0.11758578
-0.09008022 0.56906116 0.21512696
-0.21487641 0.68516207 0.19457202
-0.047168735 0.9497161 0.25744793
-0.17696653 0.8661807 0.14675188
-0.37539965 -0.4628802 0.28358173
0.09143859 0.09141045 0.15556234
0.14711761 -0.11975952 0.24968821
-0.11201289 0.5028147 0.12309865
0.017026316 0.9649155 0.1094434
-0.261197 0.69783604 0.20399883
-0.1462068 0.9498317 0.12890749
-0.14272311 0.8563274 0.10962949
-0.08167416 0.8750318 -0.2373608
-0.17921823 0.75644076 0.10444081
0.17198204 -0.27737153 0.26147816
-0.20737946 0.63098824 0.11876234
-0.006767028 0.95473695 0.22925866
-0.0330154 0.78988826 0.11057076
0.017599983 0.8490555 0.1636859
-0.00086124387 0.5167091 0.09500307
-0.04658974 0.6442649 0.14705029
-0.15670484 0.87826407 0.23669483
-0.33224055 -0.15203734 0.22895515
-0.1664032 0.58599436 0.22875851
-0.18421009 0.54691994 0.10747218
0.12222706 0.00079029583 0.17188352
-0.06547094 0.9555276 0.06973424
-0.023154922 0.7751262 0.2030066
-0.17416796 0.6308466 0.25668585
0.0662377 0.18754923 0.2121759
0.013047075 0.91352457 0.21021599
-0.23751035 0.108154625 0.1490826
-0.40674004 -0.46107817 0.1774364
-0.20224857 0.5582242 0.24806781
-0.1393846 0.4318747 0.26896536
-0.20001704 0.8507414 0.10683885
-0.13618076 0.7186039 -0.41291916
0.17858283 -0.2220354 0.20520248
-0.27929178 0.3125388 0.20916547
-0.12080631 0.7429093 -0.37457633
-0.19714609 0.86544156 0.23040456
-0.21999072 1.1027417 0.14887351
0.2499839 -0.4631999 0.23704858
-0.08596951 0.5001591 0.22707456
-0.17672902 0.45839804 0.18328848
-0.28540158 0.8922021 0.035094004
0.012801951 0.75015557 0.18548644
-0.33685297 0.88387775 0.10536386
-0.19067077 0.7753682 -0.1143222
-0.1319207 1.2334939 0.113531336
-0.10948257 0.5420086 0.32529047
0.019192897 0.90556234 0.16271839
-0.0805375 0.46412283 0.19927427
-0.16894831 0.48341233 0.2658371
-0.23005795 0.95841014 0.10690552
0.005187669 0.45550677 0.28733587
-0.087005526 0.83719176 -0.17497812
0.1309365 -0.12547025 0.1904439
-0.15568066 0.9925636 0.14857486
-0.091329426 1.0378945 0.20904881
-0.1046877 0.49986872 0.17592509
-0.029683381 0.72770786 0.21478117
0.22067273 -0.3826502 0.21085282
-0.09290044 0.3739776 0.1454792
-0.16648148 0.42300814 0.30771288
-0.12550585 1.1325679 0.11534658
-0.20312308 0.77920985 0.19393218
-0.075548336 0.96878856 0.12698488
-0.22350085 1.1299837 0.1106783
-0.049711887 1.0141059 0.12503007
-0.24980459 0.8143048 0.14768308
-0.24311996 0.6612412 0.110827476
-0.2318969 0.7334343 0.2063877
-0.13889506 1.2562976 0.21114072
-0.15233964 0.74619186 0.3142317
-0.16510585 1.0673066 0.09754613
-0.08285089 0.5621554 0.08543845
-0.05383411 0.87195307 -0.14938599
-0.13941461 0.4719028 0.14096844
-0.09098235 0.99335825 0.19734731
0.0037168367 0.34330413 0.114078954
-0.07124616 0.61604595 0.30995095
-0.12567686 0.9854448 0.119975
-0.14514616 0.6067892 0.15298891
0.044527836 0.27486694 0.18819204
-0.20663708 0.8038341 0.109425336
-0.3249855 -0.13532579 0.18077222
-0.20337656 0.36583024 0.20786369
-0.09927042 0.42852926 0.085690364
-0.035345048 0.98856044 0.238776
-0.109747164 0.86736524 -0.28707123
-0.055845793 0.42811608 0.10709523
0.06848175 0.40344664 0.15539607
-0.014248713 0.37423164 0.17572549
-0.07332947 0.70636445 0.18608582
-0.3173687 0.8318683 0.08825167
0.0030942075 0.7140603 0.15711203
-0.05797989 0.7218551 0.049883872
-0.11100505 1.0521927 0.17301568
-0.47803992 -0.46059555 0.114109635
-0.004970341 0.2838493 0.17963882
-0.16988738 0.70500684 0.17903334
0.094125986 0.2496655 0.115478374
-0.26015323 0.7297777 0.17171147
-0.27798313 0.83338755 0.067421876
-0.043214567 0.3116208 0.16007522
-0.056015592 0.8844261 0.014169097
0.010745605 0.29869717 0.2332309
-0.19328406 0.9322345 0.12283033
-0.21147072 0.65124583 0.23544705
-0.01092499 0.8237813 0.13544315
0.07184076 0.27239668 0.15334585
-0.28584492 0.24491996 0.10741784
-0.08699938 0.54052234 0.24958107
-0.38303763 -0.2671668 0.19506477
0.06572359 0.10299795 0.11563519
-0.08144818 0.3812675 0.1033286
-0.14464037 0.5351728 0.12339848
-0.104427084 0.91431224 0.072007865
-0.2429585 1.2303858 0.19153038
-0.29979193 0.9314395 0.06563158
-0.47034043 -0.46118975 0.06247578
-0.055204436 0.9103147 0.26998806
0.018365819 0.2404826 0.1695067
-0.14032541 0.8812406 -0.36133593
-0.24724987 0.9011705 0.2520141
-0.086859114 0.6042758 0.09046437
-0.10219835 0.845193 -0.21588072
-0.20594609 0.7869142 0.26490855
-0.021943608 0.8236326 0.21255009
-0.06879184 0.7446248 0.13615051
-0.26863414 0.9985287 0.19605882
-0.07316244 0.8414191 0.20941469
-0.2243678 1.2248728 0.2404412
-0.206492 1.2120827 0.09225462
-0.1362702 0.74728835 -0.3261105
0.13377494 0.084747985 0.12910566
-0.076980665 0.9232348 0.18909863
-0.20597504 0.82182753 0.058913127
-0.016512737 0.90596235 -0.015155991
-0.091516554 0.35967487 0.22776778
-0.10803217 0.9653356 0.16784002
-0.076289356 0.5365177 0.18726757
-0.09288856 0.42642704 0.26895124
-0.17220429 1.1194284 0.116587475
0.0974005 0.32701927 0.16595319
0.0973794 0.2888955 0.1892134
-0.06188487 0.8057611 0.06672557
-0.122644305 0.82915264 0.07140101
-0.33796796 0.9303747 0.089143425
-0.21621904 1.0014753 0.13443485
0.07713729 0.20219246 0.10808304
-0.2715158 0.7723713 0.25253394
-0.26228875 0.43912545 0.11867774
-0.19556835 1.1172336 0.19773021
0.008151464 0.62663645 0.15237509
0.20014125 -0.4602799 0.24075064
-0.2433938 0.77675974 0.1807794
-0.11531381 0.89464474 -0.42919073
-0.0352617 0.36880714 0.22677234
0.03901586 0.2028786 0.17119594
-0.14063394 0.5196765 0.2911359
-0.118665636 0.40488845 0.30354184
-0.056010064 0.85122085 0.2457987
-0.38575333 -0.41492593 0.2661984
-0.13603917 0.34693533 0.15475312
-0.16959226 0.5788442 0.2744642
0.14243017 -0.06706668 0.23580442
0.0045002727 0.87177205 0.23924968
-0.09837443 0.92454684 0.26865342
-0.034544207 0.84180105 0.17199358
-0.20958602 0.3687945 0.25960514
0.062462546 0.41999605 0.19927368
-0.20496279 0.4103316 0.28151727
-0.2748009 0.23182167 0.15626606
-0.13658267 0.84221184 0.2625906
0.001816385 0.3839131 0.12907419
-0.1372022 0.57484645 0.19248524
-0.25558263 0.07031488 0.16893777
-0.22820626 0.23767284 0.16188157
0.00018470734 0.9205121 0.026625872
-0.2623487 0.568817 0.12884474
-0.24206164 0.279089 0.22514893
-0.046040304 0.9301002 0.013767543
0.116485134 0.24201375 0.16112304
-0.19471362 0.7213526 0.13293394
-0.2963672 -0.0007620171 0.12945122
0.20855919 -0.29777226 0.24598017
-0.009395305 0.45523492 0.24230999
-0.051680475 0.59431094 0.060791023
-0.034259953 0.73527527 0.16833735
-0.002934828 0.51702845 0.17868116
-0.06624229 0.3969536 0.296256
-0.18163356 0.48851132 0.14306757
0.018490106 0.44762918 0.19642004
-0.17145467 1.1671747 0.19267458
-0.17204744 0.7628586 -0.25013423
-0.24613905 0.7893874 -0.04229445
-0.20156586 0.5018971 0.19163989
0.05678813 0.5788449 0.08596552
-0.278093 0.8207374 0.24623582
-0.027354391 0.85291076 -0.062938154
-0.2159494 0.9934635 0.22800776
-0.008251982 0.20105448 0.18557948
0.12979397 0.13060445 0.15402442
-0.07495093 0.43870416 0.31909955
-0.109611064 0.7159543 0.10615675
-0.17982505 1.2393111 0.23138818
-0.30162945 -0.00028246755 0.1890127
-0.0055716564 0.5524285 0.13660079
-0.27714348 0.15587655 0.19915995
-0.024174813 0.50916946 0.1397104
-0.02140725 0.6310542 0.18471768
-0.15773651 0.82887447 0.29973954
-0.018099567 0.7079514 0.06208027
-0.3849962 -0.107300654 0.1839413
-0.20087805 1.1984513 0.26024574
-0.20203736 0.4677715 0.23024613
-0.08513226 0.58776045 0.26473197
-0.17340985 0.39232844 0.23928273
-0.20092356 0.18744758 0.17915234
0.19030318 -0.40956858 0.295561
-0.18255837 1.03736 0.20935898
-0.34594035 -0.20184664 0.23306294
-0.06285326 0.8024285 0.19455022
-0.25116822 0.67657554 0.25009978
-0.16962814 0.83993936 0.075231805
-0.24693593 0.8107586 -0.080843374
0.17889681 -0.13145941 0.18947826
-0.16587967 0.8038463 0.17671238
0.12078512 -0.07914245 0.18286787
-0.16264564 0.6237252 0.075387046
0.03335274 0.13609552 0.13279119
-0.33048296 0.9528756 0.16798705
-0.2142869 0.5807009 0.126893
-0.12145046 0.77584577 0.17121607
-0.009570725 0.991876 0.19582161
0.062029857 0.13906226 0.2096104
