0.07547638 0.055476774 0.17203075
0.008950122 0.8059466 0.18296745
0.03366843 0.32877886 0.19096486
0.024530485 0.9829786 0.08854206
-0.04853581 0.4532848 0.14683616
-0.003608747 0.6156938 0.2838723
-0.20950168 0.881305 0.17986876
0.032247387 0.5463324 0.17280547
0.12691414 0.22426076 0.12307529
-0.28802097 1.0109742 0.1555494
0.18703745 -0.08646353 0.21253711
-0.037808344 0.35854146 0.14476916
-0.0146285575 0.42992437 0.117577314
0.2889825 -0.46338144 0.15114717
-0.10578144 0.8813156 0.07545802
-0.22690295 0.65820223 0.2762671
0.060405698 0.48055583 0.075501055
-0.25079182 0.6199492 0.09736894
0.166311 -0.031474337 0.14965892
-0.08112216 0.42263594 0.17426986
0.18045576 -0.36097026 0.223113
-0.2844185 0.3583864 0.12950175
0.09967317 0.26099324 0.19325158
-0.18584725 0.68434125 0.25754985
0.042102747 0.52474654 0.21283948
-0.043375686 0.5027138 0.07449097
-0.20377037 0.3117004 0.101759315
-0.23832132 1.0337131 0.15204701
-0.14656079 0.72487956 0.27272403
0.04268416 0.4137388 0.2309429
-0.23440704 0.4855842 0.2565338
-0.17463613 0.23660575 0.15893412
-0.16322216 1.2483184 0.15139222
0.0035917615 0.7882861 0.25785598
-0.2235029 0.962922 0.1484906
-0.37339234 -0.15334664 0.17208675
-0.017835421 0.38233474 0.27770966
-0.21085636 0.60517776 0.22426744
-0.13643208 0.4394412 0.0998117
-0.048376113 1.0412302 0.17700894
-0.122409925 1.2617929 0.13711116
0.021446627 0.662117 0.22567452
-0.023317797 0.87249464 -0.028309638
-0.11520161 0.87280595 0.20079517
-0.004853946 0.91561526 0.2627383
-0.29665643 0.0679439 0.18352464
-0.31512183 0.9208864 0.052546762
0.111723885 0.21891429 0.18248902
0.091768384 0.19546413 0.1422508
0.021394257 0.17437014 0.14872123
-0.001967453 0.8760805 -0.19045976
-0.31050855 0.12948826 0.16915902
-0.18697941 0.76125574 -0.2386083
-0.1471201 0.8361654 0.22015715
-0.059580304 1.0172839 0.24687847
-0.21737355 0.8160032 -0.18060125
-0.20052229 0.20888256 0.12622681
-0.20103231 0.78718024 0.14085862
-0.1532597 1.091079 0.13472876
0.050943106 0.3375339 0.11060734
0.06505686 0.17200378 0.16003808
-0.07534334 0.97892153 0.26596957
-0.06367604 0.37543973 0.18150066
-0.2722705 0.13948044 0.14172824
-0.15926623 0.9017944 0.09788579
-0.23447591 0.8409804 0.083042726
0.0011859657 0.4945018 0.20744039
0.023851562 0.6161118 0.24590127
0.0013247968 0.5553803 0.07970549
-0.0780512 0.56791943 0.30350056
-0.252289 0.27784568 0.1733838
-0.3087123 0.89349574 0.18457204
-0.07666633 0.60144436 0.12757063
-0.1603435 0.38673136 0.27294052
-0.033750266 0.84850746 -0.25983587
-0.16442633 0.46853867 0.30574903
-0.38776147 -0.32281825 0.20009878
-0.20571887 0.5140973 0.22837695
-0.035281897 0.58688295 0.29882306
-0.20953213 1.2125201 0.1996108
-0.10389137 0.8390131 0.300294
0.17382705 0.010843567 0.17788538
-0.011199191 0.668982 0.14191905
-0.22849979 0.89252156 0.09004238
-0.027148545 0.68758863 0.18197241
-0.03819325 0.7565227 0.08271276
-0.0764835 0.8779563 0.28868026
-0.0022423386 0.41561133 0.2157054
0.14068967 -0.0021696836 0.12230786
-0.07859932 0.79442304 0.30327332
-0.22822028 0.8500315 -0.022727495
0.0009852415 0.8354734 -0.15890026
-0.089370415 0.8213921 0.25641808
-0.114107326 0.3869993 0.1813479
-0.12161074 1.057336 0.21427049
-0.13935392 1.1972947 0.0540075
-0.04880666 0.8046997 0.24746531
-0.13903955 0.9438872 0.09085386
0.022779532 0.55653816 0.12334673
-0.27573556 0.85579807 -0.03742768
-0.037292153 0.41504735 0.24919355
-0.14920989 1.3036442 0.13253152
-0.14248705 0.7393601 0.13832772
-0.10898855 0.9091004 0.11230466
-0.35817307 -0.06672898 0.207313
0.2268867 -0.4098932 0.25179008
-0.34756583 -0.26390237 0.2298671
-0.14333504 1.1960344 0.23800096
0.29537284 -0.459174 0.111434445
-0.13504243 1.1479661 0.04228331
-0.20908685 0.73917997 0.1668008
-0.0070079756 0.8304141 0.27079815
-0.19336502 0.5378127 0.14671446
0.00989574 0.7053281 0.2517016
-0.04400763 0.48688203 0.22723377
-0.20576656 0.46535718 0.28536212
-0.08341055 0.47541684 0.26858085
-0.313888 0.87710834 0.043050207
-0.26983523 0.857377 0.1134755
-0.19932953 0.8038465 -0.22371767
-0.04107125 0.41447312 0.19300042
-0.18395269 0.7486558 -0.46835643
-0.09421003 0.78258824 0.22032157
-0.1857622 0.6744213 0.07071336
-0.039547525 0.6453003 0.29907387
0.029695857 0.95494974 0.20071664
-0.18555896 0.77989376 -0.17984378
-0.22622055 0.76433396 0.088633105
0.19836009 -0.41171783 0.20833808
0.02564957 0.6221919 0.19812492
-0.13601413 0.35223475 0.24730328
-0.09896614 0.4645237 0.10956971
-0.09632321 0.33065376 0.24120551
-0.2723435 0.029910404 0.15425804
-0.40417558 -0.3445129 0.23786525
-0.0894324 0.9580443 0.09803159
-0.13072774 0.47342637 0.18712404
-0.12730397 0.9772439 0.20825368
-0.17833373 0.700971 0.30362147
-0.24728155 0.8375113 0.1882048
0.27035338 -0.46024272 0.19066507
-0.18073222 0.76725686 -0.29881465
-0.057840995 0.3639462 0.26181403
-0.1459232 1.0990787 0.04630652
0.08224559 0.0666794 0.12784556
-0.15270314 1.0109675 0.23551327
-0.08412355 1.2275822 0.14020142
-0.07031421 0.77506363 0.0626656
-0.005947912 0.42904514 0.16020194
-0.25653267 0.06713633 0.114883274
-0.23395663 0.8231755 -0.13522986
-0.24928832 1.0009696 0.12466289
-0.02281167 0.6855921 0.22889443
-0.115692794 0.30017644 0.21419838
-0.12206255 1.2997015 0.09787448
-0.26387647 0.96770734 0.17841172
-0.3935457 -0.28638965 0.23383826
-0.11235614 0.43083012 0.20750576
-0.002006073 0.7695484 0.15398574
-0.34183154 -0.2308577 0.19807398
-0.13514225 1.2196883 0.114982665
-0.23590788 0.44046265 0.24429697
0.20510398 -0.3274104 0.20765604
0.09362607 0.32508224 0.11835809
0.12297402 0.1313155 0.09882489
-0.1331259 0.56113636 0.23463312
0.07098356 0.49851307 0.17396858
0.0040684245 0.21344008 0.13702732
-0.19093058 0.6224003 0.14807695
-0.014110504 0.9972137 0.09350845
0.12747812 -0.14079452 0.21575074
-0.052113928 0.66181815 0.25665486
0.27724713 -0.46061403 0.07867083
0.015137015 0.8829445 0.04044147
-0.27599198 0.96370625 0.13442817
-0.23564743 0.79196644 -0.10144922
-0.32166177 0.16424417 0.1277526
-0.106625944 1.0127504 0.24184388
-0.2748466 0.4864842 0.17239602
-0.12621763 0.67375773 0.09659373
-0.036053136 0.9922495 0.17506397
-0.26855838 0.11176798 0.18786943
-0.14976707 0.65864694 0.16018891
-0.38324583 -0.20502186 0.1852435
-0.12405649 0.58433634 0.114012696
-0.28963232 0.09411205 0.08661676
-0.042470794 0.4571389 0.2692638
-0.008279985 0.9471384 0.105539024
-0.108288184 1.3044536 0.15983024
-0.278418 0.18460704 0.13934128
-0.0050822403 0.89664257 0.09602271
-0.2400786 0.5728588 0.2647357
0.1888773 -0.44751838 0.30481976
-0.051300295 0.50585085 0.26805326
-0.1629363 0.650983 0.1138317
-0.10081293 0.7260908 0.26864567
-0.015641544 0.5935834 0.0699321
-0.2416161 0.38902402 0.18302527
-0.016070213 0.28234494 0.12719956
-0.11924564 0.54614705 0.15553328
-0.05540645 0.5861851 0.18505716
-0.29182246 0.3092697 0.11105402
-0.084858134 0.3385458 0.15588719
-0.0871195 0.7118616 0.30950043
-0.08658208 0.515806 0.07242508
-0.020706417 0.6989634 0.28456464
0.031272694 0.9377929 0.08236307
-0.15558836 0.55511165 0.3081746
-0.24653357 0.5302151 0.2378255
-0.24270126 0.8532518 0.02914569
-0.23533607 0.91899025 0.16139625
-0.17709346 1.0892351 0.17115298
0.010308438 0.41956514 0.26807272
-0.13482428 0.5320245 0.06650792
-0.23164034 0.55392325 0.15228716
0.19789986 -0.18721546 0.23084007
-0.13751566 0.653756 0.22944409
-0.21669288 0.45822114 0.13953432
-0.23627076 0.7179413 0.092593566
-0.24755329 0.8883033 -0.005372214
-0.2032733 0.9172335 0.21552518
-0.1240336 0.96961737 0.25872076
-0.1193178 1.0212616 0.18560061
-0.36387068 -0.11939747 0.22318667
-0.06836435 0.88409317 0.19198614
-0.021030635 0.70127356 0.11705478
-0.123697154 1.1761142 0.13982287
0.08223468 0.3374419 0.20362273
-0.22909442 0.36125118 0.15065336
0.019585941 0.5137776 0.12490061
-0.22874066 0.9537264 0.20145932
-0.2357387 0.75955504 0.2780289
-0.19486725 1.2810283 0.13740984
-0.09977541 0.86634326 0.24336965
-0.26134938 0.4297556 0.1972378
0.014335783 0.74666697 0.23672144
-0.054063044 0.7174804 0.2603544
-0.2737444 0.9518604 0.23445001
-0.25423884 0.60386944 0.14491633
0.03346781 0.9130774 0.1250768
-0.27577817 0.76232326 0.20524965
0.018439248 1.0140876 0.1268796
0.014078969 0.66642845 0.18147078
-0.096608564 0.68029237 0.2690262
-0.2904603 0.93485916 0.10619942
-0.18855344 0.6555197 0.29758742
-0.17980435 0.34305018 0.23942135
-0.08864103 1.1964467 0.16843253
-0.094253905 0.9377582 0.14436081
-0.08866468 0.6917746 0.07305363
-0.18362802 0.9665736 0.20533603
0.18284866 -0.33102012 0.25746465
-0.044000328 0.87597144 -0.39568496
-0.00053662213 0.6589529 0.26853573
-0.03897029 0.47661588 0.3114702
-0.14571221 0.27601194 0.14251158
0.114073455 0.17091149 0.18221013
-0.2081646 1.0453961 0.18582809
-0.19551596 0.67386854 0.15123677
-0.015790794 0.66396904 0.065732166
-0.08695076 0.4896028 0.3180322
-0.058949843 0.7150552 0.10188693
-0.12682687 0.39752197 0.23354563
-0.32752925 0.083293505 0.15801315
0.0024248566 0.9602972 0.055998135
-0.20720309 0.27351725 0.17966433
-0.16624784 0.7624563 0.16606942
-0.17685762 0.7931813 0.2303178
-0.10767166 0.8225525 0.20342034
-0.0049529504 0.34249672 0.248642
-0.04213345 0.5777253 0.101774246
-0.28901297 0.08795762 0.13652438
-0.026234329 0.8745888 0.22191332
-0.011947103 0.54552114 0.29151314
-0.25276232 0.29184094 0.09369878
-0.30643153 0.9951657 0.10778837
-0.11209586 0.9133177 0.2336164
-0.29414123 0.044824056 0.09668094
-0.25033823 0.6248412 0.24446909
-0.094070554 0.52102715 0.28200167
-0.19815642 1.1723101 0.17545114
-0.1637227 0.5697831 0.14341593
-0.08740139 0.66705275 0.16693641
0.034387574 0.4966663 0.16780552
-0.29154772 0.88252383 0.0028821735
0.06684314 0.24239215 0.20938635
-0.19690138 0.731511 0.071654916
-0.10738368 0.753302 0.3070908
-0.19443846 1.0655918 0.13210216
-0.3263843 0.9271251 0.14855665
-0.23823585 0.8909429 0.046050623
-0.1511054 0.69467074 0.1356901
-0.15678415 0.41123062 0.18682271
-0.24218804 0.19270405 0.15828532
0.2586763 -0.43220928 0.14778738
-0.1924566 1.1950157 0.09894346
0.034592316 0.28714 0.14106902
0.017281098 0.7069342 0.20478329
-0.4397999 -0.45747304 0.21111616
0.01682073 0.58622396 0.1682469
-0.29757696 -0.034219265 0.16157898
-0.16578582 1.2010837 0.14198256
-0.28889763 0.80939287 0.20275062
-0.012579694 0.91935 0.14167005
-0.33577377 0.96469605 0.12251331
-0.008399032 0.8952677 -0.45414513
-0.12033122 0.8871602 0.28647122
-0.187278 0.74147844 0.25578126
-0.42205328 -0.41247764 0.22700751
-0.25545764 0.5768616 0.22310242
0.058904216 0.47768384 0.20931196
-0.07839467 1.0169944 0.1506328
0.21855506 -0.4572232 0.19240609
-0.02522732 0.24906483 0.14848231
-0.24060202 0.5366077 0.1011408
-0.09120927 0.4662755 0.15143342
0.11642781 0.0368585 0.114078835
-0.12514107 0.83729434 0.1606112
-0.37015522 -0.3683968 0.23308723
-0.2431262 0.8116803 0.27653393
-0.13373521 0.7526449 0.24013974
-0.35460103 0.0016407104 0.14314589
0.015413435 0.24966817 0.11867255
-0.048666466 0.49998158 0.17654672
-0.17023496 0.53504026 0.25386518
-0.030415775 0.598855 0.14761779
-0.15691105 0.71495605 0.09635292
0.045085542 0.33954072 0.23643571
-0.1230914 0.52991676 0.20187156
0.11432955 0.12635422 0.18583998
-0.15677649 0.3132174 0.11474438
-0.18988773 0.88593686 0.062730126
-0.12926742 1.1274772 0.1671124
-0.087105416 1.189822 0.11248468
-0.014031149 0.52100295 0.24636379
-0.16544801 0.624454 0.19714345
-0.10690814 0.7689289 0.12522545
-0.0955673 0.55064386 0.11511501
-0.16236496 0.85961854 0.18654552
-0.010727676 0.83824205 -0.2110477
-0.0388098 0.86990774 -0.43389523
0.21374357 -0.3591742 0.2511551
-0.082773924 0.7986481 0.15711626
-0.2096903 0.50624734 0.09912117
0.04036852 0.45439476 0.24317592
-0.043116372 0.96836877 0.21545006
-0.22700013 0.45984226 0.18407255
0.034836 0.9462772 0.15829217
-0.36004663 -0.056101575 0.15685476
-0.26494113 0.8279159 -0.010674084
-0.025243204 0.7442292 0.123596236
-0.02070668 0.90999234 -0.013555753
0.06649746 0.29434878 0.2208038
0.006782036 0.8377156 -0.10626501
-0.14220625 0.7844527 0.20753606
-0.22148508 0.84027404 0.24410966
0.22869924 -0.4603237 0.14821279
-0.38741583 -0.23030947 0.22514933
-0.24210738 0.23382622 0.20437092
-0.026945654 0.4281213 0.30156532
-0.19321498 0.28728968 0.21980645
-0.15675351 0.7759887 0.27326065
-0.25692204 0.61707306 0.19871095
-0.0884624 1.2942721 0.122613944
0.03814085 0.36578357 0.16131961
-0.27877733 0.20703351 0.19233742
0.057573408 0.4556445 0.16060841
-0.1588113 0.50560415 0.09443125
0.02096283 0.7870244 0.2196781
-0.22274229 0.76479316 0.23304799
-0.2755327 0.52816266 0.13575915
-0.1738028 0.5994025 0.103082135
-0.0083642155 0.9461845 0.18666646
-0.12451233 0.6903667 0.18558025
-0.128223 0.7382446 0.1948803
-0.22537799 0.32280713 0.18237306
0.24594477 -0.45766553 0.107976705
-0.029758215 0.92216754 0.22528921
-0.047138423 0.53160816 0.2145083
-0.0035913268 0.50341666 0.28905126
-0.21993607 0.96207976 0.24691169
-0.12547643 1.2291567 0.17278805
-0.13796128 0.75954 0.08729447
0.021523807 0.46684098 0.12902442
-0.1105713 0.63692296 0.13626236
-0.088076934 0.86412555 0.12431018
-0.04611778 0.5510243 0.06617698
0.12542003 0.17594962 0.1102062
-0.17860314 1.1739359 0.061071962
-0.10243649 0.37733567 0.26852977
-0.07016429 0.844416 0.08627275
0.16856778 -0.30052733 0.2206496
-0.064030364 0.61802477 0.2202572
-0.2327537 0.18795307 0.2043775
-0.19808915 0.7442609 0.29788512
-0.021874402 0.85890776 -0.07380755
0.0023072592 0.8764565 0.14966497
-0.12878661 0.70199716 0.31141537
-0.108261935 0.8207159 0.1210351
0.06090407 0.32550627 0.155563
0.034507833 0.5229994 0.06868513
-0.32919496 0.029407162 0.17465045
-0.24010578 0.7000946 0.14606178
-0.172705 0.9719887 0.25217286
-0.3125499 0.18213692 0.16887635
0.035827994 0.17635575 0.19515395
0.042016707 0.1352458 0.17121638
-0.026252624 0.32425037 0.11315222
-0.23399879 0.41674918 0.14606139
0.19711882 -0.16798514 0.19118726
-0.17946762 0.7466196 0.20927987
-0.05225768 0.83329684 0.29416013
-0.23881343 0.93715227 0.11239773
-0.17275211 0.464078 0.09662992
-0.10393417 0.6930115 0.13704555
-0.042431235 0.6698283 0.0970819
0.08165871 0.16514707 0.0983556
-0.18402553 1.2737563 0.1848385
-0.2836381 0.9255302 0.15853065
-0.26734114 0.27763742 0.13424769
-0.13350236 1.080415 0.17556581
0.03400425 0.5761516 0.21783403
0.04312355 0.89776784 0.080777004
-0.0152749 0.47164696 0.09494066
-0.15078312 0.30939147 0.22431475
0.016045045 0.37033522 0.2075477
-0.008634211 0.4766813 0.15467119
-0.026122116 1.0274991 0.2128694
-0.2050913 0.42258102 0.21263379
-0.24030235 0.7587714 0.13212514
-0.058154076 0.88997686 0.10052045
-0.26360685 0.9807791 0.08443563
0.11928675 0.058467 0.15181267
-0.18224488 0.51104355 0.3021816
-0.3124953 -0.0814469 0.17218168
-0.09593851 0.422225 0.12754959
-0.21399401 0.8245387 -0.07460937
-0.054430395 0.8281798 0.13237113
-0.08882625 0.6344085 0.26082906
-0.15185365 0.57631564 0.068923734
-0.14590155 0.91738385 0.14302069
-0.123933226 0.47862458 0.06303533
-0.15669706 0.807382 0.089167535
-0.3173247 0.21560048 0.12735927
-0.012547981 0.5956144 0.20958051
-0.24991994 0.52148247 0.19280769
-0.09391299 0.6579751 0.3082156
-0.021564554 0.8984293 0.18263243
-0.09972434 1.1625545 0.0717093
-0.068616465 0.90221596 0.1507414
-0.26225087 0.9002569 0.12486251
-0.14460254 0.9553052 0.17362624
-0.020296756 0.8469903 0.10550226
-0.101200916 1.2090064 0.07257395
-0.117355146 0.46855214 0.2333217
-0.14469993 0.6798148 0.26960868
-0.2787233 0.89819133 0.07958387
-0.18690588 0.26312745 0.12111613
-0.21762231 0.99649745 0.17836484
-0.13296297 0.501295 0.31840348
-0.19906814 0.68850225 0.10826008
-0.31070203 0.2331967 0.16873544
-0.026293244 0.55581737 0.17567362
-0.210712 0.36295807 0.10342853
-0.22627589 0.86823976 0.13516462
-0.2205089 0.4655245 0.0988221
-0.33618408 0.019197842 0.09942894
0.049228437 0.5289129 0.13984063
-0.15771624 0.4458872 0.21814767
-0.07129797 0.30128872 0.21864036
-0.08709295 0.9538617 0.22626534
-0.050588712 0.53467935 0.10440101
0.0020703762 1.0293629 0.17019536
-0.17070982 1.1280776 0.06307201
-0.21283287 0.7098123 0.23009036
-0.34465852 -0.019163555 0.18959469
-0.026027739 0.874453 0.27845222
-0.28737104 0.8432398 0.02154436
-0.16057718 0.70766985 0.22541401
-0.053825766 0.52631617 0.31062496
-0.16138142 1.2686322 0.09991604
-0.081547946 0.6578599 0.111267485
0.008225045 0.33157846 0.14872614
0.028441463 0.4832033 0.07959689
0.22613436 -0.4582938 0.28203133
0.15251495 -0.16093028 0.18520027
-0.129462 0.6407514 0.2768709
-0.032574974 0.7881783 0.2881543
0.19758067 -0.2656569 0.20400512
-0.3230038 0.11822749 0.121650934
-0.10457359 1.1612887 0.18940958
-0.25745377 0.66188824 0.19840214
-0.086808875 1.1532885 0.14812927
-0.1576818 0.7797066 -0.43272755
-0.11660308 0.605341 0.30157724
-0.30060273 0.8403443 0.16413687
-0.050721467 0.55345196 0.26831597
-0.09111063 0.77116275 0.2659457
-0.22987223 0.14494962 0.17872563
0.17164129 0.020143403 0.1319449
-0.28801408 0.8996555 0.23344581
0.029873554 0.9926586 0.16740954
-0.1988869 0.8339221 0.20581257
-0.31146276 0.26566714 0.12740019
-0.241795 0.6509789 0.15090358
-0.0361999 0.63536483 0.062404525
0.19105408 -0.13539056 0.2243008
-0.14738551 0.79036254 0.1322688
-0.1598765 0.2739645 0.18825519
-0.19945958 0.23422751 0.20272312
0.15600884 -0.24783282 0.21427578
0.073247656 0.104934365 0.18600345
-0.038870204 0.87266076 0.13982786
-0.14136304 0.39745837 0.13714685
-0.09632993 0.29956514 0.17243162
-0.068409026 0.78886724 0.110253185
-0.27118987 0.48856044 0.11447133
0.05735352 0.10063904 0.14668055
0.108155385 0.07708306 0.19105376
0.18016666 -0.03888782 0.19346836
-0.16992909 0.37063935 0.16679263
-0.30785447 0.9409631 0.2004469
-0.059599087 0.5583141 0.14405066
-0.03112005 0.45672914 0.1929299
-0.20800734 1.2119867 0.15204479
-0.01862495 0.63871497 0.22712266
-0.20634085 0.8416259 0.28910857
-0.27643716 0.40241924 0.15310037
-0.07608634 0.6231585 0.17440122
-0.2588998 0.9155275 0.2002506
-0.026117321 0.84826064 -0.12674832
-0.14413685 1.1750009 0.09597321
-0.32754713 0.07171194 0.09940839
-0.17552975 0.83361995 0.25659466
-0.060270168 0.33250046 0.19468981
-0.086028844 0.7373337 0.22371224
-0.069565326 0.33895284 0.11488931
-0.055427715 0.6975971 0.14264229
-0.114242926 1.1144289 0.07521495
0.08530709 0.3796474 0.17931801
-0.2816119 0.2583268 0.19922385
0.1215383 -0.09007601 0.2127152
-0.2509686 0.3373656 0.102981836
-0.14265811 0.3149243 0.1711637
-0.078489795 0.84633195 0.16727725
-0.33077317 -0.030338053 0.12721318
0.014757225 0.8681149 -0.0069574616
0.0052553723 0.57806516 0.26315922
0.17634344 -0.44757432 0.27130204
-0.21573845 0.772764 -0.2061542
-0.2596377 0.32579082 0.15419284
-0.08583203 1.2342677 0.19892788
-0.19465962 1.2379256 0.11500786
-0.07167286 0.46885425 0.07252407
-0.014793267 0.33605295 0.19444807
0.009487032 0.8777623 -0.096452184
-0.29066545 0.19414681 0.09639329
0.15816508 -0.16372621 0.24066332
0.11564272 -0.028558549 0.16131891
-0.13396649 0.6060711 0.2541079
-0.2434002 0.93785655 0.0659371
-0.25138432 0.16432719 0.09639493
-0.16221035 1.0432863 0.15925443
0.020990832 0.3019939 0.10845703
-0.26018217 0.5655568 0.17817014
0.15448359 0.053723864 0.103071645
-0.18860091 0.7931852 0.2998427
0.045168586 0.19922884 0.114555836
0.024198815 0.2647075 0.21704413
-0.06787084 0.90139055 0.23813404
-0.20863132 1.1726379 0.1300208
-0.19265902 0.39173752 0.13359775
-0.30833077 -0.04756135 0.2092148
-0.2538621 0.8662683 0.26282617
-0.2188288 0.15954295 0.12936205
-0.17305265 0.40976244 0.09867731
-0.13031697 1.2474468 0.071767
-0.27568513 0.7973676 0.15545338
-0.0616341 0.2926215 0.1345298
-0.29411322 0.85921925 0.20945635
-0.42212456 -0.45030683 0.12982374
-0.21172877 0.61138624 0.27888304
0.17945406 -0.07778299 0.16792646
-0.2096468 0.7926499 0.06316255
-0.055418663 0.7459312 0.29795456
-0.18150353 0.32507396 0.19314212
-0.24386507 0.20932545 0.10418333
0.16442543 0.05659102 0.1494508
-0.0557255 0.6882789 0.30110008
-0.4234026 -0.41372597 0.16714402
-0.22558686 0.29840627 0.13746998
-0.04058844 0.61140996 0.2593279
-0.28171363 0.3655259 0.18048468
-0.17909461 1.0977104 0.09793258
0.06837772 0.29284978 0.1058394
-0.23205885 0.5022329 0.14774436
-0.2102708 0.64022607 0.18761043
-0.115717396 0.8852762 0.1572257
-0.25006527 0.11675407 0.10087412
-0.2298235 0.25408024 0.10526529
0.21229511 -0.2353833 0.22778466
-0.20095454 0.9074922 0.12795724
-0.17087206 0.54339945 0.19988467
-0.12705177 0.6273703 0.092982575
-0.24221784 0.87460303 0.21646541
-0.18755874 0.584169 0.17660707
-0.054008923 0.67866504 0.05765503
-0.1957074 0.93556035 0.07833591
-0.16861549 0.8800576 0.28384104
-0.036712818 0.3799638 0.10857776
0.031653553 0.49653393 0.25137365
-0.0081102345 0.9727944 0.14242455
-0.0121985935 0.6381822 0.10550125
-0.15746742 1.0380439 0.11276594
-0.027417697 0.91923463 0.06478761
-0.10583179 1.197171 0.21437192
-0.124798186 0.39370567 0.09725759
0.11413562 -0.039751545 0.20562351
-0.11109459 0.33875173 0.19483966
0.1417771 0.044060394 0.19031236
-0.15350765 0.5143876 0.16365507
-0.1895207 0.3381578 0.14358163
-0.16498101 1.1534189 0.14213991
-0.1460741 1.2940009 0.17827179
0.030277237 0.22029173 0.20939618
-0.22245596 0.32808092 0.22597447
0.063653424 0.37873822 0.21775883
-0.1891885 0.93071544 0.17008501
-0.046696994 0.6218934 0.10225551
-0.03738478 0.7907113 0.16145061
-0.0541903 0.6603942 0.19920105
0.018482782 0.8711813 0.20561424
-0.0013284932 0.5495839 0.21433514
-0.21261686 0.88555926 0.2724259
-0.025175925 0.9088612 -0.41231778
-0.3787148 -0.16866289 0.21885759
0.0007457165 0.6147211 0.062409926
-0.011892462 0.7446169 0.2729808
-0.2933169 0.9913113 0.20503262
-0.35773444 -0.31430304 0.23173815
0.14306621 -0.19597827 0.21133512
-0.30262464 0.28277355 0.16928878
0.13776551 0.19293353 0.15151809
-0.11125147 0.9239521 0.18783295
-0.04305961 0.5730716 0.2318711
-0.23858294 0.80521536 0.22101137
-0.46180934 -0.4564976 0.16329333
0.24818698 -0.4180987 0.20497507
-0.21693766 0.5565064 0.19844545
-0.035621114 0.877175 0.07186316
-0.11619596 0.35075614 0.10840205
0.104647055 0.013528091 0.19268915
0.09271322 0.14401245 0.14442503
-0.19970486 0.41406855 0.17178896
-0.046777703 0.94539785 0.16285388
-0.42151177 -0.4601216 0.26686358
-0.051635053 0.9298151 0.11449332
0.14726092 -0.0095761325 0.2078977
-0.11765519 1.0483923 0.13562983
-0.14361426 0.92628706 0.27080828
-0.2607104 0.7309762 0.24418724
-0.12295264 0.5649354 0.27863687
0.077309765 0.23993456 0.15090665
0.04623808 0.38208935 0.12102385
-0.06592779 0.44643158 0.22729279
-0.111663654 0.3112126 0.12999973
-0.07904066 1.2664292 0.16067824
-0.18949354 0.9237585 0.26218912
-0.38213935 -0.4586522 0.23171273
-0.03847392 0.875376 -0.32808447
-0.31891823 -0.09820199 0.22137153
-0.40211183 -0.37430936 0.19642434
-0.095124826 0.65754604 0.21715865
-0.16406694 0.35985783 0.106625736
0.22506112 -0.40999797 0.16814262
0.033309884 0.4245027 0.13256493
-0.117308676 0.70115936 0.23046994
0.023403846 0.37857592 0.25438714
-0.0768369 0.40198964 0.2262004
0.030979738 0.40639347 0.17724296
-0.33342856 0.045523588 0.13373186
-0.07454117 0.5136429 0.14011897
-0.16450149 0.6126352 0.2966029
-0.15738338 0.90327144 0.19047536
-0.35091028 -0.104623616 0.1567021
-0.12069191 0.44983572 0.31401163
-0.43296212 -0.4598447 0.08815202
-0.38268077 -0.41533405 0.2048169
-0.30218703 0.3245243 0.1557436
-0.22520965 0.7076969 0.27970287
-0.18017404 1.17911 0.21582669
-0.25260967 0.38669163 0.11290035
0.11712642 0.08321383 0.09462841
-0.12380631 1.2363133 0.23207581
-0.16388327 0.9841198 0.10739997
-0.2171241 0.41944146 0.10276137
-0.30838668 0.88007355 0.13352886
-0.05714643 0.48375458 0.11423816
-0.04776541 0.76224905 0.24312305
-0.20108734 0.83464515 0.15817428
-0.16028416 0.49751437 0.21326624
-0.07053713 0.69431543 0.22696713
-0.12889834 0.43587893 0.15853792
-0.21809483 0.5207273 0.27732944
-0.045865875 0.32847464 0.2382791
0.0014739791 0.8981422 -0.051081434
-0.25699368 0.47701386 0.21772012
-0.10189827 0.7332157 0.15968686
-0.12632547 0.5126103 0.24471518
-0.11023265 1.1004683 0.13301812
0.028524315 0.541362 0.26074338
-0.16168907 0.83278877 0.12934287
-0.26462507 0.875661 0.16697612
-0.12947819 0.8027915 0.2534556
-0.2510323 0.9956609 0.22972551
-0.05473946 0.9948491 0.10257668
-0.26611054 0.45261538 0.15386303
0.021636907 0.82984763 0.22747205
-0.16774845 1.0075448 0.18840097
-0.17391393 0.43689537 0.13566662
0.055554762 0.24856594 0.108713835
-0.11290016 0.60944283 0.21691744
-0.3319636 -0.18079749 0.18739499
0.05886563 0.48949373 0.12652718
-0.12846723 0.7957442 0.30318028
-0.23872468 0.3942327 0.2259951
-0.010876698 0.2507925 0.19316465
-0.24984384 0.8035904 0.10924941
-0.022781938 0.29324389 0.21908337
-0.045207746 0.28451228 0.17690657
-0.10178978 0.5871409 0.16235122
0.1454027 0.095297486 0.17113996
-0.31032538 0.827646 0.11933635
-0.14875016 0.3605123 0.20535888
-0.20006806 0.5585477 0.29174238
-0.08431557 0.6451788 0.061246544
-0.2366536 0.86297476 -0.056261383
-0.14070505 1.1545296 0.2118988
-0.1432597 0.6574187 0.31042013
-0.17298113 0.670002 0.20339924
0.16775289 -0.2173298 0.2435811
-0.15262395 0.9360751 0.22255895
0.0835262 0.36742267 0.13376456
-0.25386482 0.35335237 0.21175125
0.042598933 0.863364 0.12804443
0.119723 0.29547426 0.13913794
-0.18224956 0.44077203 0.25425845
-0.16637552 1.2207711 0.19267291
-0.04813703 0.4053833 0.14299683
-0.110572755 0.79588497 0.08441359
-0.22582638 0.5995461 0.16946125
-0.083179936 0.75056446 0.08725314
-0.1252341 0.4768229 0.27941805
-0.069533154 0.7596272 0.18786311
-0.17974031 0.97900456 0.15323256
0.1796303 -0.40386802 0.24908641
-0.29356068 0.14250642 0.09356453
-0.22429739 0.77872324 -0.15282032
-0.12168064 0.63432515 0.18341589
0.096043184 0.017323127 0.14725086
-0.18292528 0.29618406 0.15348545
0.0011549781 0.5953434 0.11543175
-0.09135185 0.57198507 0.20992813
-0.2153192 0.6924052 0.18901908
-0.037908375 0.9538038 0.2684627
-0.1687451 0.87712216 0.14675699
-0.37364334 -0.46006185 0.28193736
0.10587141 0.10199765 0.1450288
0.15586469 -0.11058933 0.23769146
-0.113177836 0.50633764 0.115535274
0.038809016 0.9663094 0.12357682
-0.2625649 0.7064463 0.19713312
-0.13081387 0.95943224 0.1304416
-0.13303857 0.8655994 0.112985104
-0.011629106 0.8731185 -0.24062967
-0.17746195 0.76667964 0.101093315
0.17731693 -0.26728892 0.24827263
-0.20885396 0.63726944 0.107629254
0.0041704294 0.95661736 0.24119261
-0.027289096 0.7926749 0.11513479
0.024037065 0.85091084 0.17502701
-0.004549007 0.5176432 0.084035434
-0.048906535 0.64658713 0.14438403
-0.15045637 0.8863095 0.2378244
-0.32863095 -0.15074834 0.22767681
-0.16775092 0.58888096 0.2228906
-0.18750682 0.5509336 0.09844278
0.13637957 0.0112413615 0.16155565
-0.042322587 0.9594592 0.08084606
-0.021854065 0.7757636 0.20747235
-0.1761637 0.634161 0.25145847
0.07664594 0.19723207 0.20441082
0.021282416 0.91317594 0.22178805
-0.23416454 0.11053735 0.14353505
-0.4058581 -0.45907363 0.17779544
-0.2041982 0.56135 0.24156809
-0.1392692 0.4348548 0.26211768
-0.19222447 0.86351955 0.10615432
-0.18703225 0.7503395 -0.4244365
0.18656634 -0.21348855 0.19401264
-0.27684805 0.31329668 0.20024104
-0.16186322 0.7601701 -0.3854254
-0.19144492 0.8754984 0.22934067
-0.19249433 1.1192085 0.13814294
0.24757159 -0.46018806 0.23467848
-0.08652199 0.5027162 0.22107957
-0.17677727 0.46138036 0.17613351
-0.27488726 0.9163536 0.02781893
0.012486739 0.7493533 0.19009098
-0.32743633 0.9086111 0.09920113
-0.199272 0.7957165 -0.12452557
-0.09512091 1.24511 0.10088611
-0.10940692 0.54159975 0.31717828
0.031217447 0.9056993 0.1750265
-0.08044362 0.46742165 0.19290973
-0.17023703 0.48589468 0.25862283
-0.21479496 0.9745499 0.10124006
0.0061477376 0.46094388 0.28290975
-0.03474133 0.8452165 -0.1754757
0.14111176 -0.11517753 0.17820135
-0.13877739 1.003124 0.1485161
-0.076519415 1.0460358 0.2145788
-0.10550034 0.5033535 0.16963753
-0.029495517 0.728257 0.21649817
0.22425026 -0.37509963 0.202192
-0.0909875 0.3790533 0.14057997
-0.16763836 0.42661256 0.29951674
-0.097361386 1.1414605 0.10906625
-0.20031188 0.78792465 0.19045666
-0.057906613 0.9740993 0.13384022
-0.19181468 1.1457174 0.09764925
-0.027809387 1.0197953 0.13243811
-0.24514866 0.8283123 0.14322327
-0.24383152 0.6696162 0.095517725
-0.23126695 0.7422151 0.20138334
-0.10795446 1.2732041 0.19836462
-0.15292627 0.7479304 0.30903608
-0.14088391 1.0786697 0.09387146
-0.09078829 0.5648061 0.07034501
0.0053459923 0.8757924 -0.14492658
-0.13988945 0.47538218 0.13477275
-0.076395825 1.0001848 0.2021352
0.00800023 0.35089076 0.111131534
-0.07221626 0.61701715 0.30252504
-0.107199684 0.9937775 0.123039864
-0.14628665 0.6111251 0.14749795
0.05239674 0.28382808 0.1828646
-0.20160726 0.8161589 0.107099585
-0.32030416 -0.13373116 0.18006736
-0.20225641 0.36875662 0.19918627
-0.104027644 0.43675977 0.069372766
-0.022865433 0.99355936 0.2497258
-0.029833525 0.87083554 -0.2901386
-0.05673828 0.4334396 0.101840414
0.072315454 0.41106403 0.15069488
-0.011353807 0.38011268 0.17136537
-0.07346319 0.7090247 0.1857096
-0.3151495 0.8570561 0.08382124
0.0012628804 0.71434146 0.16015401
-0.069876626 0.72594047 0.05924789
-0.09220937 1.0599365 0.17420375
-0.47748607 -0.45906416 0.114703104
0.0018842885 0.2916202 0.17494477
-0.16926286 0.71146166 0.17525512
0.10337021 0.2614733 0.110318825
-0.25971672 0.74030375 0.16432786
-0.27142864 0.85913765 0.061449774
-0.037708983 0.31845653 0.15602496
-0.02391288 0.89308643 0.023261743
0.016976489 0.305753 0.22882362
-0.17984328 0.94488204 0.12200174
-0.21342558 0.65588814 0.22948527
-0.005247853 0.82605577 0.14289863
0.08016019 0.28259397 0.14831974
-0.28127033 0.24596271 0.09783335
-0.08762556 0.5427398 0.24363667
-0.37933093 -0.26765686 0.19327849
0.08051807 0.11409429 0.10570942
-0.08017696 0.38811478 0.09982385
-0.14558062 0.5393514 0.1164214
-0.08648481 0.921792 0.07951495
-0.21281467 1.2521737 0.17119193
-0.28706598 0.9561982 0.05797719
-0.4704033 -0.46043557 0.063758686
-0.048901677 0.9133661 0.27940476
0.027220655 0.2494027 0.16386107
-0.04186874 0.8883319 -0.36432445
-0.24169187 0.91574126 0.2504663
-0.09430084 0.6074188 0.08052197
-0.042019688 0.8536876 -0.2170593
-0.20496301 0.794081 0.2618274
-0.018118339 0.8248617 0.21937028
-0.066573806 0.74898195 0.13754767
-0.2558774 1.0224156 0.19309783
-0.06782896 0.8449828 0.21391273
-0.19808793 1.2478213 0.22113732
-0.17021605 1.2257903 0.07301882
-0.17066365 0.7668314 -0.34198672
0.15041888 0.09757066 0.12024289
-0.06617963 0.92897487 0.19500789
-0.20029354 0.83669573 0.058277495
0.02149513 0.90872216 -0.00522043
-0.08901988 0.36462888 0.22109517
-0.09358761 0.9728366 0.17161533
-0.07769583 0.5397049 0.18206125
-0.09200885 0.4297568 0.26304665
-0.14373747 1.1307139 0.107939534
0.105933644 0.33901858 0.16143568
0.10603384 0.30063385 0.18496935
-0.057218015 0.81077933 0.076924846
-0.11532608 0.83817923 0.07659389
-0.3260119 0.956663 0.08140598
-0.19844216 1.015564 0.13097236
0.088355325 0.21313095 0.100624055
-0.2709884 0.7825417 0.24747214
-0.26335168 0.4425988 0.109735966
-0.17125902 1.1345297 0.18556133
0.005302882 0.62772155 0.1507447
0.19982293 -0.4537469 0.23573703
-0.2400901 0.7880025 0.17580119
-0.00907146 0.87976956 -0.4229835
-0.032307163 0.37428468 0.2216345
0.04934098 0.21249229 0.16369757
-0.14230984 0.52164304 0.28388682
-0.11784688 0.40909052 0.2955826
-0.051494345 0.8530016 0.2520064
-0.38429692 -0.4122243 0.26634195
-0.13400713 0.35129356 0.14885959
-0.1711959 0.5816879 0.26810646
0.15343791 -0.0582527 0.22598055
0.00965245 0.87066007 0.24953967
-0.091609895 0.9305372 0.27590296
-0.02836221 0.8444687 0.1789375
-0.20834118 0.37300992 0.24915293
0.06917301 0.42795002 0.19562408
-0.20507538 0.41422102 0.27243248
-0.2704285 0.23311217 0.1475031
-0.13269404 0.8478122 0.2637307
0.00337333 0.3902812 0.1262981
-0.1385794 0.5783951 0.18672863
-0.25349596 0.07277886 0.16388041
-0.22479638 0.24006414 0.15395416
0.03126821 0.92372537 0.03901226
-0.26413023 0.5717204 0.10764532
-0.2395466 0.2819497 0.21641196
-0.012474898 0.9346901 0.02306033
0.12698857 0.25417462 0.15591252
-0.1937911 0.73036736 0.12832478
-0.2929653 0.0020736638 0.12788092
0.21294872 -0.29107308 0.23495556
-0.007993879 0.45991594 0.23788024
-0.06465493 0.5983472 0.057084464
-0.033964813 0.7371309 0.17059632
-0.0044803256 0.5205877 0.1733416
-0.06457278 0.40095294 0.2910622
-0.18272978 0.49196446 0.13606708
0.020234976 0.45269436 0.19213533
-0.14528391 1.1831267 0.18083814
-0.19416839 0.7841979 -0.26550704
-0.25168967 0.8133271 -0.052648846
-0.20247269 0.5048386 0.18366294
0.018401362 0.56357354 0.05960316
-0.2762085 0.8329775 0.24228095
0.01503631 0.85692644 -0.053537846
-0.2045955 1.0111165 0.22656211
0.003758103 0.21021506 0.17769352
0.14258584 0.14244717 0.14593366
-0.07463065 0.4421754 0.3116874
-0.108469546 0.7218112 0.10471113
-0.15242024 1.2598121 0.21521464
-0.29709297 0.0026356112 0.19044152
-0.010744462 0.5542829 0.13181144
-0.27316713 0.15858671 0.19266546
-0.026356887 0.5118649 0.13352552
-0.023748027 0.6319281 0.18235192
-0.15608019 0.8335379 0.29873538
-0.028873857 0.7092781 0.069050685
-0.38099656 -0.10540468 0.1839426
-0.17724332 1.2212777 0.24415597
-0.20265111 0.47013336 0.2223293
-0.0858376 0.58921623 0.25951594
-0.17262001 0.3957952 0.23119324
-0.19959019 0.1925646 0.17105708
0.18832153 -0.3973515 0.28746378
-0.16894343 1.0545528 0.2116496
-0.34244722 -0.20197864 0.2309993
-0.058838107 0.8053782 0.19819334
-0.2532993 0.68253005 0.24392259
-0.16182959 0.85206956 0.07911728
-0.25215486 0.83502334 -0.090085804
0.18925896 -0.12257913 0.18043669
-0.16133198 0.81189734 0.17573808
0.13295743 -0.06909542 0.17151654
-0.17314038 0.6262019 0.06729956
0.047858868 0.14649996 0.12420732
-0.31941348 0.97772026 0.16222897
-0.21651453 0.585408 0.11152525
-0.117777556 0.78133595 0.1712532
0.007333218 0.99578464 0.20835999
0.07486582 0.14905354 0.19955395
