0.060569767 0.047737703 0.19270708
0.017271964 0.808663 0.17791593
0.029553322 0.3247264 0.19920228
0.008624695 0.98448545 0.0793353
-0.044199336 0.45322123 0.15378131
-0.0020466684 0.619242 0.28858757
-0.2089994 0.8733525 0.18451548
0.03812796 0.5456075 0.17889972
0.117835514 0.21458137 0.13566492
-0.29236868 0.99097013 0.1658657
0.17492448 -0.09375312 0.22974771
-0.038534954 0.35707182 0.15057465
-0.008892441 0.4269846 0.121118
0.2886875 -0.46340668 0.15311007
-0.10629384 0.8752031 0.07018659
-0.21754402 0.6581175 0.28222787
0.0865159 0.4942051 0.0920828
-0.24580792 0.6215348 0.1196167
0.15218581 -0.039741002 0.16481109
-0.07857781 0.4233473 0.182155
0.17733476 -0.3709267 0.23896237
-0.28404137 0.36559802 0.13927042
0.091187455 0.25361988 0.20465222
-0.17800227 0.68481815 0.263748
0.042292647 0.5239519 0.2199224
-0.033848826 0.50381553 0.07887776
-0.20512237 0.3158186 0.111210965
-0.24666937 1.0196389 0.16120179
-0.13929953 0.72571594 0.27791983
0.039157625 0.41021556 0.23712078
-0.23132047 0.49129516 0.26510096
-0.17775345 0.23899744 0.16762635
-0.18616597 1.2371451 0.17250374
0.0091783395 0.7927787 0.25451505
-0.22809307 0.95170605 0.15529227
-0.37903365 -0.1487423 0.17480133
-0.019756915 0.3816558 0.2833771
-0.20450507 0.60661465 0.2315555
-0.13347499 0.4398227 0.102052025
-0.05810287 1.0406697 0.17443165
-0.14722124 1.2538264 0.15610918
0.02646075 0.6666064 0.22952902
-0.052084494 0.8650916 -0.03308159
-0.114283435 0.86989343 0.2008962
-0.0027881844 0.9182158 0.2545653
-0.30514795 0.076098315 0.18677454
-0.31795174 0.8994881 0.06463676
0.101598606 0.21155192 0.19501027
0.081328094 0.18777582 0.15543838
0.0077253045 0.16777243 0.1620204
-0.05817912 0.87045944 -0.19035092
-0.319914 0.13844147 0.17418557
-0.16835277 0.7369144 -0.21848781
-0.14401238 0.832929 0.22272527
-0.063874 1.0116663 0.24147636
-0.20953494 0.78922117 -0.1630898
-0.20517953 0.21327746 0.1345935
-0.19738962 0.7813703 0.14763305
-0.16818291 1.0841349 0.14432497
0.049345024 0.33207187 0.11749353
0.05391001 0.16560303 0.17463857
-0.07647472 0.9746193 0.25912675
-0.06367766 0.37505925 0.1887514
-0.28047976 0.14661609 0.14746448
-0.16318364 0.8944392 0.09906198
-0.23300666 0.83038944 0.089754395
0.0035021317 0.4939495 0.21474388
0.024256287 0.6193859 0.25092503
0.020670434 0.55974495 0.09143313
-0.07396332 0.571723 0.31322303
-0.25631368 0.28416148 0.18154566
-0.3081211 0.88073653 0.19278757
-0.067139134 0.60183936 0.13541427
-0.16079126 0.386624 0.28341246
-0.09309241 0.84168875 -0.25767732
-0.16075788 0.47214207 0.3136966
-0.38765526 -0.3189022 0.20442554
-0.20067208 0.5172798 0.23613673
-0.032533873 0.5907724 0.3061494
-0.22706549 1.197078 0.2219319
-0.099747896 0.8389917 0.29911336
0.15968062 0.0032230488 0.19289881
-0.00096469535 0.6713558 0.14412124
-0.23004605 0.8809826 0.095885254
-0.018589031 0.6892701 0.18479559
-0.023633895 0.75788164 0.07654173
-0.07299494 0.87755406 0.28465956
-0.0023836822 0.4143633 0.22302781
0.124403834 -0.010545398 0.14073828
-0.0734237 0.79671586 0.30187193
-0.22496857 0.8293579 -0.014106882
-0.04182887 0.8296547 -0.16046962
-0.084997766 0.8218162 0.25602877
-0.11330522 0.38819134 0.18862934
-0.12801877 1.0503672 0.21488778
-0.1687884 1.1950504 0.07342673
-0.044447776 0.8070172 0.24569012
-0.14658877 0.938695 0.091000184
0.044407114 0.56199116 0.12951723
-0.2722535 0.8310522 -0.022987131
-0.037086755 0.41451034 0.25670883
-0.17591266 1.2921857 0.15513271
-0.1373662 0.73647076 0.14298245
-0.11395362 0.90465647 0.1103885
-0.36350393 -0.062316027 0.20764697
0.22804855 -0.41723827 0.25911146
-0.34825915 -0.2581739 0.23208971
-0.15534219 1.1830212 0.2553041
0.29296765 -0.4572799 0.11316054
-0.16096257 1.1444263 0.059625838
-0.20403115 0.73477596 0.17369948
-0.0025545948 0.8342938 0.26521346
-0.18704365 0.54004914 0.1556879
0.016687045 0.70955837 0.25269473
-0.040977024 0.48715168 0.23504162
-0.20162866 0.46942338 0.29185498
-0.08116533 0.4765804 0.2760512
-0.31164256 0.85552937 0.0536827
-0.27030823 0.84252715 0.120749876
-0.19032082 0.7758145 -0.20581444
-0.039416637 0.41376802 0.20035231
-0.14959946 0.71476984 -0.45338097
-0.08980142 0.7824476 0.22165014
-0.17034289 0.6740412 0.077153765
-0.033849884 0.64857996 0.3051426
0.025784465 0.95745754 0.19118915
-0.17494094 0.75709075 -0.16344371
-0.2176205 0.7572397 0.09983781
0.19725576 -0.41867143 0.21746793
0.03270903 0.6255414 0.20429197
-0.13741596 0.35243732 0.25851065
-0.093552046 0.46510404 0.1194363
-0.09925045 0.32967457 0.25151986
-0.280798 0.037028044 0.15652624
-0.40296268 -0.34335908 0.24430631
-0.09948504 0.95511585 0.09473387
-0.1273504 0.4750434 0.19492872
-0.13130617 0.9718725 0.20894928
-0.16938402 0.70245254 0.30776617
-0.24420358 0.8289208 0.19413218
0.27025625 -0.4619517 0.19354537
-0.15953033 0.7402395 -0.2789609
-0.05956815 0.36331108 0.26960114
-0.16985887 1.0900501 0.06119662
0.06727682 0.05898676 0.14744674
-0.15651925 1.0020206 0.23793554
-0.106141694 1.2230277 0.154383
-0.04987795 0.77231455 0.051635247
-0.0031668588 0.42823946 0.1663267
-0.26570767 0.07297652 0.11835986
-0.22611456 0.7976309 -0.11911974
-0.25593075 0.98562866 0.13508773
-0.017088385 0.688988 0.23190546
-0.11932895 0.29677433 0.22211003
-0.15118133 1.29116 0.117134474
-0.2669881 0.9530439 0.18593913
-0.39371023 -0.28237873 0.23823102
-0.1102561 0.43227178 0.21506332
0.005046921 0.77096087 0.1498677
-0.34377187 -0.22569434 0.1992514
-0.15916617 1.2128601 0.13306512
-0.23189633 0.4447037 0.2524327
0.19927578 -0.33551678 0.22381149
0.09058652 0.3179811 0.12738983
0.10894217 0.12176148 0.11632478
-0.12774697 0.56303674 0.24196845
0.08916292 0.51159585 0.18407404
-0.007730108 0.20766601 0.14768036
-0.18370256 0.62236154 0.15710105
-0.02989219 0.997825 0.08641895
0.11806596 -0.14965372 0.23654898
-0.045966636 0.6644327 0.2611233
0.2734661 -0.45459598 0.082776
-0.0016157088 0.8827649 0.030192995
-0.28039455 0.9477574 0.14322774
-0.22593683 0.7670271 -0.084968686
-0.33146617 0.17332591 0.13388598
-0.11077139 1.0064553 0.24018252
-0.26188862 0.49033618 0.18414442
-0.1185128 0.67243296 0.1026547
-0.043842718 0.9915792 0.17078973
-0.27575627 0.11747093 0.19298594
-0.14226206 0.6582404 0.16549677
-0.38729346 -0.20053615 0.1879137
-0.11581009 0.5849715 0.12324512
-0.2982898 0.10289599 0.09109651
-0.040832136 0.45752484 0.27640226
-0.019296596 0.9478923 0.09783772
-0.13400418 1.294268 0.17883825
-0.28591445 0.19201763 0.14681576
-0.013984002 0.8978692 0.08758823
-0.23063621 0.57728225 0.27166682
0.19203985 -0.4606997 0.31318897
-0.04914847 0.50689036 0.27545825
-0.1562428 0.64937264 0.12121959
-0.09439101 0.72728986 0.27245823
0.0019081905 0.599667 0.07805179
-0.24060561 0.3927575 0.19085261
-0.022190345 0.2780865 0.13248214
-0.11283685 0.5470371 0.16315497
-0.048843954 0.58757627 0.19170259
-0.2942534 0.31684935 0.12048624
-0.08616286 0.33776182 0.16315672
-0.08033234 0.71521544 0.31518295
-0.07693176 0.51625156 0.086822905
-0.014892062 0.7023434 0.28633767
0.017145846 0.9399907 0.07207003
-0.1507007 0.55838996 0.32042384
-0.24061903 0.5329413 0.24696298
-0.24262038 0.83279735 0.035823114
-0.23738362 0.90818256 0.1670658
-0.1896059 1.0800279 0.18229868
0.009175674 0.41805014 0.27452403
-0.11742039 0.53741723 0.07897378
-0.22625764 0.5564986 0.16497739
0.1888712 -0.19389984 0.24863166
-0.13068965 0.6543722 0.23543222
-0.21227573 0.46166325 0.14700578
-0.22757548 0.71221626 0.10622911
-0.2488444 0.86704326 0.004196538
-0.20319015 0.9091664 0.21962014
-0.124541275 0.96292794 0.25621238
-0.12646174 1.0158569 0.18809089
-0.36818564 -0.1151419 0.22470687
-0.068218336 0.88241154 0.18917902
-0.0066619855 0.7014147 0.11245312
-0.14341052 1.1686821 0.15361056
0.0764494 0.3304635 0.21176551
-0.22783616 0.36604708 0.1589233
0.031721383 0.5168544 0.1361566
-0.23071389 0.94265634 0.20730303
-0.22741257 0.7573552 0.28243542
-0.22012222 1.2672656 0.16171934
-0.09764826 0.8646211 0.2423779
-0.2579563 0.43356195 0.20568466
0.0234134 0.7508122 0.2351784
-0.048349306 0.72031856 0.26299945
-0.27275863 0.93809026 0.24076855
-0.26012954 0.6038984 0.15714262
0.0253933 0.91604656 0.1147997
-0.26952964 0.7564926 0.2130493
0.004636306 1.0156149 0.11881343
0.025125932 0.6704196 0.1834235
-0.089722216 0.68222374 0.27401215
-0.29412684 0.9176338 0.11560115
-0.18127015 0.65583235 0.30561888
-0.18133254 0.3437594 0.25092205
-0.108294435 1.1899122 0.18012789
-0.100009695 0.93449754 0.14282362
-0.075722806 0.69191355 0.08263804
-0.18664774 0.9577789 0.20925926
0.18039943 -0.3416355 0.27405944
-0.13464233 0.862775 -0.3945223
0.0038804258 0.6625532 0.27181622
-0.037571754 0.4767636 0.3181923
-0.14719188 0.2762478 0.15099016
0.10270542 0.16370276 0.19723777
-0.21470577 1.0317396 0.19187701
-0.18900062 0.6716432 0.15874444
0.015381268 0.66984516 0.06944788
-0.08438962 0.4923393 0.32744282
-0.048622012 0.7161043 0.10228301
-0.12614122 0.39898768 0.24168165
-0.33717462 0.091142885 0.1614835
-0.016619451 0.961343 0.0473508
-0.21051171 0.27808914 0.18779704
-0.16201742 0.7587197 0.17057812
-0.1716422 0.7903388 0.23476681
-0.10471445 0.82090014 0.20416701
-0.008724327 0.3406063 0.25491107
-0.029685661 0.57841945 0.10885556
-0.29804257 0.095567755 0.14054996
-0.024767332 0.87529457 0.21644248
-0.012543025 0.54648256 0.2961066
-0.2554026 0.29805213 0.10294201
-0.31223562 0.9725077 0.11902873
-0.11207204 0.91007817 0.23278542
-0.30408123 0.05198565 0.09827708
-0.24282336 0.62623256 0.25175825
-0.09037798 0.52340925 0.29068094
-0.2161345 1.1581134 0.19492856
-0.15624657 0.5705092 0.15134287
-0.080489635 0.667675 0.1714473
0.043821555 0.4966062 0.1756703
-0.28984338 0.85868704 0.01568921
0.05814598 0.23704098 0.22050455
-0.186972 0.72627354 0.07557248
-0.10128909 0.75510114 0.3105588
-0.2083063 1.056227 0.14300585
-0.32925424 0.9088389 0.15805991
-0.24016322 0.8737375 0.052862477
-0.1446042 0.6927502 0.14123833
-0.15492128 0.41400027 0.19441098
-0.2484572 0.19875644 0.16561222
0.25624123 -0.43274492 0.15138009
-0.21629548 1.1851089 0.11998359
0.029222202 0.28194964 0.14940809
0.02608684 0.71110237 0.20619123
-0.4361494 -0.45747113 0.21369165
0.024098784 0.5877284 0.17563029
-0.30445606 -0.030228533 0.15949348
-0.18644436 1.1910783 0.1603595
-0.28395164 0.80072427 0.2100223
-0.018225139 0.9198777 0.13490087
-0.3405466 0.94324577 0.13310513
-0.11653791 0.887764 -0.45821965
-0.11716619 0.8847146 0.28498906
-0.18042101 0.74059826 0.2606707
-0.42099506 -0.4126093 0.23011993
-0.24931811 0.5770288 0.22919945
0.05622843 0.47591734 0.21491416
-0.08860745 1.0142076 0.15074986
0.21803196 -0.4608299 0.19820426
-0.034933385 0.24453805 0.15669042
-0.2291411 0.5397864 0.122960575
-0.086719796 0.4671534 0.15993524
0.102305815 0.02960922 0.1348721
-0.1241437 0.83400637 0.16188897
-0.36887792 -0.36537597 0.23780003
-0.23669326 0.80703604 0.28409907
-0.12805265 0.7521016 0.2437109
-0.36463535 0.0058003184 0.1436501
0.007125862 0.24343805 0.12698264
-0.0435998 0.5003334 0.18457663
-0.16501515 0.53755474 0.26212257
-0.021149714 0.5998219 0.15410434
-0.1512944 0.7114396 0.10228638
0.039669592 0.33531392 0.24286135
-0.11779181 0.5315479 0.20949228
0.10095611 0.11887022 0.20359069
-0.15779218 0.31487244 0.12185489
-0.19080776 0.8763917 0.06461988
-0.14407314 1.1197474 0.17847773
-0.110761136 1.1866575 0.12507449
-0.011883957 0.52160513 0.25323132
-0.15888612 0.6250666 0.20343891
-0.10283047 0.7667349 0.12724827
-0.08832886 0.55065405 0.12480769
-0.16117159 0.85460365 0.18960866
-0.058793142 0.8337217 -0.21160838
-0.13006768 0.8583773 -0.4324582
0.21158119 -0.36846098 0.26451924
-0.079897605 0.7969068 0.15727541
-0.20193915 0.50831044 0.109261885
0.039669216 0.4516606 0.25021306
-0.04665401 0.96687657 0.21060725
-0.22271687 0.4628199 0.19287157
0.0280306 0.9495528 0.14801878
-0.3668569 -0.05079109 0.15626825
-0.25871238 0.80319005 0.0023677445
-0.018190272 0.7448395 0.121270776
-0.050471395 0.9064638 -0.020386942
0.060330786 0.28849983 0.2296781
-0.03191767 0.8311303 -0.110323906
-0.13784257 0.7824441 0.21052665
-0.21701911 0.83445436 0.2498197
0.2287505 -0.46259344 0.15324987
-0.38808677 -0.22616617 0.22983888
-0.24779442 0.23936419 0.21140993
-0.026949394 0.42914245 0.30774504
-0.19553638 0.2897015 0.22882824
-0.15041983 0.7751468 0.27740473
-0.24950454 0.6177661 0.20707357
-0.11515914 1.2854086 0.1382703
0.03604074 0.36183435 0.16798578
-0.28557456 0.21356939 0.20014057
0.060330108 0.45427197 0.16840617
-0.15224311 0.5085035 0.10154999
0.030118885 0.7909713 0.21540652
-0.21658637 0.76185656 0.23820671
-0.26860404 0.53362596 0.15141854
-0.16542545 0.59953886 0.11179753
-0.012459324 0.9470669 0.18004915
-0.11812315 0.6902207 0.19007711
-0.12294951 0.73733133 0.19888216
-0.22696306 0.32816833 0.19113234
0.24296647 -0.45710286 0.111712396
-0.029825483 0.92189133 0.21959189
-0.042703353 0.532731 0.22220862
-0.0026379554 0.50119346 0.29381314
-0.22029546 0.95042604 0.25151148
-0.14551389 1.219774 0.19001316
-0.13029134 0.75315106 0.09156316
0.029161813 0.46404627 0.13632315
-0.10274564 0.6363384 0.14262708
-0.09043556 0.8612223 0.12295807
-0.03245757 0.55169433 0.069472805
0.11404182 0.16641216 0.12578228
-0.20411246 1.1665827 0.08115709
-0.10319802 0.37667343 0.2775711
-0.073284045 0.83874464 0.08606862
0.16278182 -0.30949402 0.23814839
-0.057727665 0.6200307 0.22616431
-0.23829076 0.19233836 0.21097773
-0.18965173 0.74383247 0.30401683
-0.056929473 0.85072523 -0.07769699
0.000833806 0.87690127 0.14045052
-0.121339336 0.7044705 0.31867525
-0.1081471 0.81697863 0.12126722
0.05631258 0.31970882 0.16391587
0.071144745 0.5370809 0.092837825
-0.3365498 0.036035657 0.17607425
-0.23265839 0.6959425 0.15496762
-0.17338651 0.96239483 0.2535686
-0.32154432 0.19027683 0.17617278
0.024810439 0.17232023 0.20966701
0.027692216 0.12925343 0.18589853
-0.028928239 0.32015604 0.11637478
-0.23105605 0.4211633 0.15389486
0.18659686 -0.17465252 0.20797141
-0.17395125 0.7443923 0.21438228
-0.047979087 0.8358158 0.29050392
-0.24269915 0.9245433 0.11922827
-0.16551696 0.4667156 0.10130367
-0.096782535 0.69290435 0.14172323
-0.031629313 0.6702072 0.09946508
0.07047628 0.15674481 0.11306455
-0.20382495 1.2588596 0.20922035
-0.28553724 0.9112907 0.16660441
-0.27112862 0.284787 0.14266555
-0.14437167 1.073737 0.18192688
0.03746824 0.5780448 0.22576651
0.03057663 0.8981671 0.06724005
-0.0082865 0.4724468 0.109775655
-0.1522905 0.30987912 0.2351296
0.013632092 0.36784604 0.21471189
-0.0026933013 0.47685915 0.1628422
-0.0340796 1.0242659 0.20813581
-0.2028295 0.4260114 0.22071317
-0.23386964 0.752178 0.14166848
-0.06310534 0.8878331 0.0968596
-0.27069762 0.96186554 0.095308036
0.103669964 0.050914563 0.1714045
-0.17702979 0.51597905 0.31278986
-0.31838548 -0.07566804 0.17197326
-0.09319591 0.42249042 0.13581085
-0.20847653 0.8019567 -0.06193478
-0.05336785 0.82692206 0.13035534
-0.082230166 0.6371505 0.26667386
-0.1329518 0.58003277 0.08035767
-0.1495779 0.91124094 0.14434555
-0.11380508 0.4817861 0.08029413
-0.1556026 0.80109 0.09020639
-0.3253049 0.22444746 0.13480742
-0.0069315177 0.5976648 0.21552363
-0.2440029 0.5263794 0.20170261
-0.0874843 0.66152143 0.31613132
-0.022831813 0.89910114 0.17666472
-0.12477988 1.1603734 0.08523186
-0.0718658 0.9006729 0.14788817
-0.26369423 0.88690966 0.13179305
-0.14882293 0.94912404 0.17556693
-0.022147471 0.8458738 0.09840934
-0.12938987 1.2057989 0.087721094
-0.11393369 0.47043023 0.24088843
-0.13699739 0.6808509 0.2752098
-0.2802298 0.88042516 0.088002555
-0.18990585 0.26676434 0.12879649
-0.22259986 0.9846689 0.1854058
-0.12990227 0.50544655 0.33012164
-0.19164275 0.68450516 0.11574617
-0.31713995 0.24115002 0.17697755
-0.019691493 0.5567309 0.18308601
-0.20975088 0.36791122 0.11304393
-0.22659129 0.8585637 0.14079596
-0.21145533 0.46657854 0.10301888
-0.3469766 0.024377303 0.10027788
0.07997384 0.54511243 0.14098898
-0.15493058 0.44837585 0.22608054
-0.0757106 0.2981126 0.22616749
-0.089418076 0.9508911 0.22317621
-0.0416228 0.5357247 0.11180779
-0.009495397 1.028797 0.16336808
-0.19358093 1.1221632 0.078215525
-0.20559771 0.70827425 0.23610209
-0.35038647 -0.014422075 0.18915772
-0.023720084 0.8770535 0.27151838
-0.28427875 0.8199594 0.03363701
-0.15411931 0.70686394 0.23096728
-0.051214878 0.5264053 0.3183755
-0.18863174 1.2604284 0.1230886
-0.07333868 0.65796024 0.11810829
0.005446265 0.32793766 0.15568063
0.042933337 0.48955727 0.102382675
0.22747627 -0.46219823 0.2858704
0.14232197 -0.16880625 0.20359935
-0.12233591 0.64221597 0.28375375
-0.02768477 0.79153556 0.28543276
0.18916422 -0.2712004 0.22113463
-0.33452916 0.12670633 0.12695329
-0.119831525 1.1528881 0.20175882
-0.2496254 0.660993 0.20764251
-0.10447766 1.1465439 0.15940821
-0.14086261 0.7482883 -0.41996083
-0.110923365 0.60695386 0.31260976
-0.29728463 0.8268959 0.17195848
-0.047863733 0.5553143 0.27578896
-0.085382685 0.77203256 0.2673273
-0.2363386 0.14973839 0.18505853
0.15792222 0.011992754 0.14846407
-0.2855262 0.8875197 0.23996489
0.020770298 0.9948335 0.15728143
-0.196057 0.8284382 0.21047267
-0.3169016 0.27440232 0.13593689
-0.237088 0.6488437 0.16099472
-0.02163094 0.63824886 0.05993689
0.18132421 -0.14258073 0.242119
-0.1444243 0.786142 0.13540593
-0.15945104 0.2740096 0.1976752
-0.2040063 0.23805991 0.21100146
0.1483262 -0.25580907 0.23355761
0.05812308 0.0983778 0.2045646
-0.04153312 0.8718684 0.13576132
-0.13894795 0.39963004 0.14327979
-0.1003319 0.2961434 0.1796825
-0.06467369 0.78736264 0.107975714
-0.25703764 0.49125066 0.12973982
0.041619554 0.09369127 0.16370644
0.09347774 0.06986728 0.21160543
0.16624366 -0.04668767 0.20938744
-0.16875325 0.37375513 0.17475386
-0.3083019 0.9252972 0.20846674
-0.051751953 0.5589235 0.15126963
-0.02873336 0.45638174 0.2000871
-0.22834958 1.1985774 0.17364907
-0.013195189 0.6416716 0.23159541
-0.20155117 0.83612263 0.29528674
-0.27481762 0.40902492 0.16229899
-0.06868322 0.6243615 0.18051724
-0.25872225 0.90402913 0.20666146
-0.06666378 0.83803236 -0.12805758
-0.1672948 1.1693293 0.11208698
-0.33740303 0.07996068 0.101764716
-0.17117397 0.8302448 0.26067114
-0.062526375 0.33188972 0.20260407
-0.08039271 0.73792136 0.22627491
-0.07050971 0.336615 0.11804491
-0.046426125 0.6982844 0.1446081
-0.13537677 1.1112509 0.08563255
0.08022558 0.3724771 0.1873549
-0.2863592 0.26594785 0.20846471
0.11166851 -0.09799435 0.23329115
-0.2508682 0.3428822 0.11431275
-0.14464216 0.31697252 0.1785975
-0.07787793 0.84461313 0.16593961
-0.3386622 -0.02471001 0.124623835
-0.00983219 0.8667346 -0.0164406
0.004899206 0.5797593 0.26789343
0.17738068 -0.45872155 0.27920297
-0.20124656 0.7430832 -0.18589038
-0.261068 0.33271843 0.16327532
-0.10596942 1.2266616 0.21458936
-0.21883054 1.2267667 0.1381942
-0.065369844 0.47073644 0.082072064
-0.01742329 0.33369678 0.2019767
-0.03463426 0.871876 -0.1032107
-0.29826343 0.20239712 0.103907906
0.1489725 -0.17138259 0.26166475
0.10127293 -0.036904573 0.1806303
-0.12765639 0.6079676 0.260893
-0.24862209 0.92222166 0.07350724
-0.25908884 0.17093258 0.10432853
-0.17164664 1.0354514 0.16542895
0.016687 0.29629093 0.114311434
-0.26607788 0.56640744 0.18528026
0.1376714 0.041843463 0.119411364
-0.18118335 0.7912575 0.30585507
0.035014097 0.19306079 0.127103
0.016689474 0.2608449 0.22685249
-0.06744255 0.90056187 0.23440093
-0.22990058 1.1594582 0.15049128
-0.18966252 0.39644778 0.14047357
-0.31466582 -0.04260856 0.20804545
-0.24875963 0.8581908 0.26776972
-0.22577332 0.16537179 0.1359101
-0.17050336 0.4160951 0.09991882
-0.16002484 1.2414597 0.09279343
-0.2733097 0.78725797 0.16098076
-0.06743558 0.28760502 0.1390971
-0.29123616 0.84814274 0.21640712
-0.42246464 -0.45058286 0.13202134
-0.2036245 0.6133379 0.2868083
0.16663128 -0.08542445 0.18500468
-0.20071343 0.78151304 0.06931302
-0.05004384 0.7497963 0.29850996
-0.1828654 0.32825822 0.20172243
-0.24997361 0.21589577 0.1136955
0.14668524 0.04804358 0.16557597
-0.04956503 0.69093484 0.30630007
-0.42315248 -0.41419652 0.17054692
-0.22782634 0.30353582 0.14613141
-0.036184914 0.61389923 0.26514772
-0.28277165 0.37318242 0.18950531
-0.19822615 1.0889853 0.10808897
0.0650705 0.28592357 0.114220746
-0.22469537 0.5058958 0.15762344
-0.20409738 0.6396429 0.19553302
-0.1171205 0.88147056 0.15697618
-0.2588702 0.123549625 0.106723696
-0.23357254 0.26006022 0.11405633
0.2040874 -0.24254343 0.24610837
-0.20316409 0.89819705 0.13278529
-0.16528371 0.545412 0.20798035
-0.117242575 0.6271454 0.10107876
-0.24022096 0.86551994 0.22200449
-0.18129505 0.5851875 0.18420584
-0.0381894 0.6800021 0.052769147
-0.20158277 0.9244054 0.08278241
-0.16416863 0.875959 0.28671074
-0.034173068 0.37817225 0.111129545
0.029110687 0.49487603 0.25721297
-0.016994009 0.9734709 0.13566379
0.0062837326 0.64318424 0.106634885
-0.16982944 1.0310904 0.11894093
-0.042396754 0.916711 0.05702447
-0.11931149 1.1870705 0.2291319
-0.123173 0.3939775 0.10043707
0.10104667 -0.046097875 0.22547558
-0.112537295 0.3390801 0.20278391
0.12703435 0.037863556 0.20839348
-0.14825787 0.51633984 0.17187782
-0.1893811 0.34169635 0.15146987
-0.1834115 1.1439854 0.15770324
-0.16940929 1.2800534 0.19834825
0.021157846 0.21613628 0.22194009
-0.22513191 0.33263245 0.23629345
0.05864347 0.37330434 0.2241317
-0.19183002 0.9224389 0.17415896
-0.032747526 0.6234384 0.10927164
-0.03328649 0.79080415 0.15983056
-0.047410104 0.6622384 0.20329444
0.019373232 0.8754601 0.19808514
0.0026924151 0.55092055 0.22127189
-0.20825785 0.8784093 0.276513
-0.1337355 0.89755726 -0.41116574
-0.38310698 -0.16443855 0.22161283
0.04336466 0.62458414 0.07994768
-0.006946156 0.74878365 0.27095163
-0.2951201 0.97270757 0.21304205
-0.35611844 -0.3092528 0.2337345
0.13541819 -0.20412636 0.23007126
-0.30751327 0.2904797 0.17828448
0.12667872 0.18380374 0.16544862
-0.113292225 0.9199402 0.18747865
-0.038569234 0.57478523 0.23858786
-0.23369367 0.7998727 0.22748385
-0.4606066 -0.45777896 0.16625884
0.24691585 -0.42273813 0.21125898
-0.21150902 0.5594217 0.20650321
-0.04720663 0.86978304 0.061486784
-0.11549406 0.35081008 0.1127129
0.088944554 0.006796931 0.21244077
0.080466926 0.13640772 0.16052552
-0.1977859 0.4173153 0.17977865
-0.05219573 0.9445679 0.15871957
-0.41361433 -0.45895573 0.26693502
-0.05996682 0.92890483 0.10984226
0.1340371 -0.016659444 0.22493501
-0.12907133 1.0433793 0.14058183
-0.14220569 0.9211545 0.27041
-0.25179505 0.72849905 0.25071317
-0.11807339 0.5673181 0.28624174
0.06866094 0.23318046 0.16187921
0.04791881 0.37874165 0.12590232
-0.06333878 0.4465094 0.23486224
-0.1124078 0.30986875 0.13579026
-0.102067955 1.2594929 0.17693426
-0.18776795 0.916491 0.26483992
-0.3797607 -0.4592225 0.23303668
-0.11826504 0.8629811 -0.3234773
-0.32391986 -0.092827365 0.22158939
-0.40187797 -0.37280428 0.20237291
-0.08887098 0.65898734 0.22163832
-0.1630385 0.3634179 0.11349452
0.22164138 -0.41598278 0.17651144
0.03812314 0.42179984 0.13679759
-0.11104108 0.7017013 0.2348471
0.019505057 0.3762491 0.26008388
-0.07640134 0.40224233 0.23366207
0.030351648 0.40333042 0.18371896
-0.3427824 0.05202103 0.13613065
-0.0680733 0.51386404 0.14792363
-0.15796009 0.6136808 0.30578393
-0.15793078 0.89760906 0.19259946
-0.35614732 -0.09837634 0.15746756
-0.118184336 0.4527496 0.32191765
-0.4326723 -0.4607569 0.089722976
-0.38244703 -0.41454506 0.2060415
-0.30494624 0.33211768 0.16448772
-0.21597502 0.70675516 0.28417966
-0.1946635 1.1643244 0.23504521
-0.25024062 0.3923492 0.123960614
0.10148131 0.073775224 0.11298773
-0.13885294 1.2238237 0.24962081
-0.17310362 0.9770743 0.11107728
-0.2146479 0.4236535 0.106181644
-0.30722702 0.86575097 0.14224465
-0.05068485 0.48480475 0.12166541
-0.042445812 0.76496893 0.24237946
-0.19877473 0.8279399 0.16259387
-0.15585104 0.49994203 0.22138633
-0.064376645 0.69586504 0.23055167
-0.12605226 0.43767878 0.16554499
-0.21118513 0.5233392 0.28498974
-0.049181696 0.32635188 0.24691516
-0.03626457 0.8927423 -0.059158515
-0.25282267 0.48426852 0.2275993
-0.09638349 0.7329862 0.163271
-0.12198252 0.5144554 0.25274873
-0.12516762 1.0957882 0.14008205
0.028129764 0.54092956 0.26308143
-0.16054249 0.8267844 0.1316123
-0.26417014 0.8643239 0.17419322
-0.12422729 0.80166024 0.25611472
-0.25248963 0.97996616 0.23506233
-0.06965158 0.9960562 0.09845287
-0.2613841 0.45687145 0.16214952
0.026766567 0.8347531 0.22122659
-0.17389657 0.9983436 0.19269596
-0.1704187 0.43989322 0.1422676
0.0483914 0.24228121 0.118443914
-0.10628328 0.6106544 0.22322465
-0.33519596 -0.176087 0.18746713
0.07947684 0.5021102 0.13804398
-0.12316777 0.7957519 0.30743882
-0.2377063 0.39885935 0.23506865
-0.019020362 0.24720778 0.20238088
-0.24421033 0.7927754 0.1183527
-0.02828344 0.29034224 0.22700356
-0.051114783 0.28180316 0.18455917
-0.0946504 0.5877401 0.16944239
0.13168164 0.08720945 0.18749213
-0.30901286 0.8113167 0.1277258
-0.14887275 0.3624876 0.2142337
-0.19450608 0.5611996 0.3025116
-0.06598333 0.6453371 0.07384431
-0.2363766 0.8393635 -0.04696949
-0.15407525 1.1426113 0.22627781
-0.13649184 0.6591129 0.31901932
-0.16603447 0.6693531 0.2092211
0.16024275 -0.22594537 0.26352772
-0.15360573 0.9301461 0.22393689
0.082075335 0.36104524 0.14248966
-0.25559926 0.35991487 0.22141933
0.036095265 0.863802 0.1139958
0.113617584 0.2861498 0.14822431
-0.17954771 0.4435576 0.26212516
-0.18431991 1.2081327 0.21248904
-0.045773305 0.40444908 0.1497119
-0.10630614 0.7902748 0.08325629
-0.22188997 0.6005249 0.17655863
-0.074097864 0.7490826 0.087300785
-0.12189234 0.4793931 0.28786707
-0.064389005 0.7597937 0.18931426
-0.18586291 0.9704113 0.15763506
0.18027945 -0.41507962 0.25926593
-0.30283418 0.15079638 0.09964555
-0.21318264 0.75211686 -0.13566604
-0.11527025 0.6345776 0.1894335
0.080505155 0.008524693 0.16738153
-0.18477331 0.2988798 0.16161986
0.019676372 0.5993913 0.120982595
-0.085418075 0.5730052 0.2171975
-0.20848262 0.6898833 0.19617575
-0.03900311 0.9529661 0.2603312
-0.16909653 0.8701451 0.14938554
-0.37112787 -0.46155453 0.28497374
0.09159324 0.09440184 0.16306292
0.14564045 -0.11806521 0.25800908
-0.107001856 0.5075932 0.12450304
0.02765556 0.968878 0.11236716
-0.25446987 0.7027833 0.20544462
-0.13769451 0.9539639 0.13183072
-0.13477471 0.86018014 0.1119382
-0.073818065 0.86878824 -0.23730361
-0.17217427 0.76051676 0.10678619
0.17130598 -0.27714956 0.2668483
-0.20137201 0.63621736 0.12103191
0.0022890812 0.9582372 0.23265979
-0.023011955 0.7933632 0.11176257
0.027190397 0.8521989 0.16687225
0.004905108 0.5202494 0.0976705
-0.040040296 0.64786476 0.14977375
-0.14896697 0.8820685 0.23938331
-0.3319439 -0.14546996 0.22879389
-0.16150546 0.5908463 0.22986226
-0.1790754 0.55241483 0.108432725
0.121643566 0.0034393235 0.18038552
-0.05654035 0.95932144 0.07238379
-0.015592996 0.77811176 0.20577803
-0.16878782 0.63543624 0.2578698
0.066524506 0.19138582 0.21857
0.022251701 0.91681224 0.2137462
-0.2426893 0.11692347 0.14829004
-0.4047866 -0.4596664 0.17950164
-0.19773597 0.5634037 0.24850833
-0.13732946 0.43711135 0.26964736
-0.192439 0.8548635 0.10941815
-0.15477924 0.7113331 -0.40877196
0.17797346 -0.22036958 0.21143098
-0.27940142 0.3210116 0.20871912
-0.13440946 0.73344594 -0.37161106
-0.18948358 0.86949843 0.23305942
-0.2106473 1.1081885 0.15285653
0.24790655 -0.46324664 0.23797284
-0.082419574 0.50455034 0.22891212
-0.17327385 0.4641317 0.18390658
-0.27887258 0.8951449 0.039286718
0.021416692 0.752939 0.18824019
-0.32927644 0.8884441 0.108879805
-0.19137385 0.7717318 -0.11041574
-0.1228052 1.2397293 0.11744418
-0.10642804 0.54674435 0.32792795
0.028620703 0.90859586 0.16580145
-0.077194266 0.468585 0.20111881
-0.16589728 0.4886433 0.26641527
-0.2218832 0.96307886 0.10963117
0.0071872566 0.45865938 0.29035136
-0.080039255 0.83326447 -0.17426139
0.13043338 -0.12324474 0.19809471
-0.14699616 0.9968061 0.15173817
-0.08166589 1.0434196 0.21244447
-0.1004477 0.50450456 0.17757265
-0.022937486 0.73077023 0.21755292
0.22082518 -0.38196748 0.21372363
-0.08994307 0.37889948 0.14685947
-0.16484821 0.42872506 0.3069779
-0.11655936 1.1378326 0.11919502
-0.19603467 0.7835669 0.19622393
-0.06666127 0.9726271 0.1298208
-0.21446823 1.1358147 0.11482757
-0.04068061 1.0189054 0.12809795
-0.24246743 0.8188187 0.15038013
-0.23708084 0.6664256 0.11261718
-0.22515705 0.7379055 0.20828873
-0.12889357 1.2627017 0.2158399
-0.14624108 0.75005454 0.31694314
-0.15593643 1.072855 0.10169096
-0.07680801 0.56664425 0.08791723
-0.044713687 0.8689469 -0.14888647
-0.13513622 0.4773867 0.14210661
-0.082188986 0.99741554 0.2006168
0.007026054 0.3472658 0.11613387
-0.066699795 0.61955184 0.3119862
-0.11692477 0.9898198 0.12212209
-0.13930896 0.6114365 0.15462054
0.045873363 0.27853203 0.19258274
-0.1992437 0.8079868 0.11199156
-0.32653087 -0.12840869 0.18074648
-0.20173632 0.3724729 0.20798315
-0.09516542 0.433456 0.08767073
-0.026064387 0.99230266 0.2421333
-0.10247439 0.8612421 -0.2871183
-0.05144086 0.43200213 0.1091545
0.07218937 0.40675852 0.15893194
-0.011586125 0.37824476 0.17836308
-0.0665977 0.70972764 0.18858668
-0.31128025 0.8364941 0.09202897
0.012154248 0.71709204 0.15935808
-0.048349753 0.72555524 0.052508716
-0.10144061 1.0580951 0.17699076
-0.4771799 -0.46046454 0.116989486
-0.0033252344 0.28811544 0.18282405
-0.16331111 0.70926845 0.18108875
0.09688466 0.25233287 0.12084884
-0.25363266 0.7346612 0.17390977
-0.27155852 0.83662146 0.07074219
-0.04123436 0.31624156 0.16250828
-0.045861505 0.8873348 0.01645722
0.011574038 0.30272403 0.2364764
-0.18518782 0.93657476 0.1256323
-0.2055222 0.6563992 0.23675893
-0.0019081625 0.82621914 0.13855232
0.07398657 0.27570045 0.15827093
-0.28649467 0.25375208 0.106358014
-0.08330515 0.54458684 0.25161862
-0.38304424 -0.2621452 0.19647782
0.06705737 0.106260404 0.122715674
-0.07761706 0.3860133 0.10389352
-0.13945408 0.540127 0.12469588
-0.096098 0.9180884 0.073525585
-0.23426084 1.2370348 0.19609259
-0.292313 0.9353499 0.06987467
-0.47043037 -0.46102476 0.06468828
-0.047295023 0.9131997 0.27260625
0.019835886 0.24435787 0.17374648
-0.13244359 0.87474424 -0.36070505
-0.23924129 0.9053275 0.2548517
-0.079801574 0.60859513 0.09367238
-0.09544143 0.8407674 -0.21537384
-0.19894898 0.79113245 0.26707798
-0.014211405 0.826506 0.21542723
-0.061135698 0.7479621 0.13861164
-0.26041117 1.003529 0.19925666
-0.065398544 0.8446884 0.21203162
-0.2148604 1.2324221 0.24558823
-0.19802871 1.2183664 0.096271925
-0.14683326 0.73940206 -0.32362378
0.13389781 0.08691299 0.13736358
-0.06854092 0.9268671 0.19207005
-0.19962007 0.82555604 0.06129594
-0.006260178 0.9078778 -0.013178582
-0.09001773 0.36463836 0.22914025
-0.09942133 0.9693082 0.17085147
-0.07157929 0.5406578 0.18926491
-0.09103008 0.43101326 0.2700895
-0.16320315 1.1248616 0.12062841
0.10002245 0.3300823 0.17087819
0.098905794 0.29206502 0.19428632
-0.04968006 0.80949897 0.068546504
-0.113673165 0.8324688 0.07365626
-0.33025602 0.9346161 0.0931936
-0.20775577 1.005835 0.1379666
0.07920614 0.20517874 0.11372504
-0.2638865 0.7772745 0.2541913
-0.25644767 0.44733337 0.117943816
-0.1864639 1.1227664 0.20123053
0.014967808 0.62979364 0.1554602
0.19916134 -0.46007603 0.24194795
-0.2364117 0.7812103 0.18330052
-0.10535525 0.88320404 -0.42679057
-0.033538774 0.3730755 0.22905394
0.040179662 0.20656736 0.1762271
-0.13746326 0.52440757 0.29219866
-0.117474094 0.41013765 0.30332613
-0.048508435 0.8543812 0.24845588
-0.38274136 -0.41251197 0.2667553
-0.1338789 0.3525043 0.15563872
-0.16519228 0.58351564 0.27541685
0.14076847 -0.06478794 0.2446768
0.012570476 0.87472194 0.24237116
-0.09031827 0.92788476 0.27094194
-0.026262004 0.84493095 0.17478032
-0.2086613 0.37536857 0.2599264
0.06425714 0.4227555 0.20263539
-0.20287764 0.4164353 0.28108242
-0.27589524 0.24036068 0.15550144
-0.12929621 0.84575385 0.26517835
0.005547257 0.38779905 0.13121164
-0.13212787 0.57934844 0.19400221
-0.26130766 0.07940867 0.16704154
-0.22910626 0.24546877 0.16148068
0.011031157 0.9236452 0.02859811
-0.25667652 0.575544 0.13032155
-0.24300638 0.28700644 0.22487491
-0.036629736 0.9328648 0.015919192
0.11780358 0.24500218 0.16712236
-0.18801138 0.72577614 0.13516152
-0.29994735 0.0075330255 0.12893344
0.20829703 -0.2973333 0.25052336
-0.0068300026 0.4587472 0.2451692
-0.04305646 0.59826726 0.063321225
-0.026764143 0.73846763 0.17100884
0.0015533216 0.52046645 0.18169379
-0.06518507 0.4020697 0.29673722
-0.17716193 0.49425158 0.14362814
0.02159051 0.45106235 0.19954431
-0.16214633 1.1729596 0.1966632
-0.17834672 0.75653934 -0.24680936
-0.24369904 0.7885967 -0.0379165
-0.19749492 0.5077379 0.19221671
0.06684981 0.58397466 0.09243212
-0.2704939 0.8254928 0.24849348
-0.017589137 0.8525221 -0.06151617
-0.20740803 0.99806714 0.23182821
-0.006829149 0.20590365 0.18950091
0.12996684 0.13317625 0.16174859
-0.07355705 0.44377148 0.3187849
-0.10235612 0.71987176 0.108438775
-0.17011862 1.2459992 0.23678721
-0.30453613 0.007540277 0.18782693
0.00011012636 0.55596656 0.1396889
-0.28055945 0.16436508 0.19841829
-0.019291762 0.5130581 0.14248165
-0.015365191 0.63429785 0.18755063
-0.15068589 0.83252335 0.3028129
-0.0062880195 0.71317303 0.065677114
-0.38650787 -0.100728564 0.18490921
-0.19052763 1.2057929 0.26480213
-0.19887757 0.47371137 0.23061278
-0.080765806 0.5919078 0.2667835
-0.17169416 0.3981758 0.23969327
-0.20419647 0.19581585 0.17854816
0.19049211 -0.41028795 0.29755077
-0.17381683 1.0422739 0.21271102
-0.34552306 -0.19573781 0.23346679
-0.055358525 0.8056679 0.19724688
-0.24432404 0.6817156 0.2506325
-0.16196607 0.84396315 0.07704764
-0.24571022 0.80904716 -0.076678276
0.17780805 -0.1292969 0.19712695
-0.15861142 0.80787235 0.17917433
0.11987636 -0.076950684 0.19071692
-0.1539105 0.6295875 0.07771405
0.034761738 0.13965727 0.1389096
-0.32241052 0.95780987 0.17139496
-0.2083742 0.58628845 0.12828818
-0.114291824 0.77960116 0.17364544
0.000108684966 0.99595785 0.19943833
0.061997805 0.14292264 0.21625161
