0.070485 0.048400 0.182532
0.011236 0.807134 0.182902
0.031343 0.323656 0.196835
0.016715 0.984514 0.088704
-0.048125 0.450754 0.151899
-0.003401 0.615714 0.290440
-0.211849 0.877776 0.186041
0.033722 0.544530 0.178052
0.123697 0.216752 0.130878
-0.292749 1.006842 0.164741
0.184262 -0.092138 0.222634
-0.039653 0.354720 0.148951
-0.013291 0.426144 0.119644
0.299630 -0.463369 0.175473
-0.108465 0.877252 0.075559
-0.225827 0.655164 0.283484
0.082003 0.489192 0.082284
-0.253572 0.616370 0.106644
0.162013 -0.038048 0.157192
-0.081298 0.419952 0.179996
0.184957 -0.370267 0.235101
-0.286629 0.356034 0.137875
0.096556 0.254308 0.201302
-0.185016 0.681504 0.263617
0.041910 0.522637 0.219901
-0.040362 0.501592 0.077384
-0.206316 0.308836 0.109074
-0.243359 1.030085 0.160500
-0.146125 0.722618 0.278328
0.041405 0.409305 0.237048
-0.234604 0.483796 0.265741
-0.177242 0.233147 0.165504
-0.170106 1.246219 0.166228
0.003911 0.789753 0.260723
-0.227676 0.959296 0.155645
-0.377493 -0.156280 0.183633
-0.018950 0.378639 0.283531
-0.210341 0.602255 0.231088
-0.137442 0.436125 0.102180
-0.053947 1.040292 0.180625
-0.129968 1.260433 0.151624
0.022447 0.663703 0.231277
-0.034398 0.871223 -0.029980
-0.117079 0.870219 0.204411
-0.006245 0.915693 0.264588
-0.301928 0.066239 0.191900
-0.321790 0.916382 0.062641
0.108334 0.212506 0.190752
0.087988 0.188868 0.149950
0.016068 0.167529 0.154746
-0.021891 0.880135 -0.192000
-0.316557 0.128165 0.177483
-0.195014 0.754691 -0.233445
-0.148198 0.833249 0.224833
-0.061411 1.014932 0.250228
-0.227151 0.809599 -0.174746
-0.204081 0.206117 0.133213
-0.202814 0.783627 0.146832
-0.159622 1.088775 0.142563
0.048609 0.331897 0.115190
0.060919 0.165772 0.167967
-0.076450 0.976468 0.269547
-0.064942 0.372035 0.186782
-0.277587 0.137408 0.149030
-0.163750 0.898282 0.102541
-0.238221 0.837009 0.089920
0.001070 0.492008 0.213387
0.023941 0.616475 0.252584
0.011753 0.557168 0.084793
-0.077723 0.567676 0.312335
-0.255585 0.275629 0.181384
-0.311418 0.889455 0.194105
-0.075244 0.599441 0.132611
-0.162290 0.382661 0.282174
-0.058634 0.852563 -0.261496
-0.163956 0.466759 0.314703
-0.390006 -0.325121 0.225161
-0.205149 0.511551 0.235586
-0.034868 0.586956 0.306557
-0.214561 1.209354 0.214751
-0.103998 0.837078 0.304764
0.169894 0.004862 0.186813
-0.008774 0.669582 0.143905
-0.232932 0.888601 0.096869
-0.026006 0.687357 0.184849
-0.031554 0.756464 0.078409
-0.076770 0.876175 0.292216
-0.003163 0.412175 0.221415
0.135963 -0.008711 0.130777
-0.078327 0.793515 0.307557
-0.234133 0.844055 -0.017787
-0.015246 0.837989 -0.160701
-0.089901 0.819694 0.260124
-0.114982 0.384052 0.187045
-0.125110 1.054491 0.219616
-0.151910 1.198798 0.068646
-0.049294 0.804318 0.250458
-0.144976 0.940942 0.095093
0.037261 0.560353 0.126400
-0.283428 0.850360 -0.029631
-0.038034 0.411724 0.255120
-0.156957 1.301913 0.148045
-0.143467 0.736189 0.143063
-0.113769 0.906447 0.115275
-0.361978 -0.069620 0.215502
0.234933 -0.417389 0.250374
-0.349607 -0.266617 0.241464
-0.146388 1.192877 0.250412
0.313821 -0.456383 0.168342
-0.145779 1.148324 0.053688
-0.210003 0.735728 0.173014
-0.007202 0.831249 0.273287
-0.193145 0.534877 0.153391
0.011259 0.706907 0.256346
-0.043834 0.484504 0.233155
-0.204875 0.463346 0.293582
-0.083214 0.473048 0.275035
-0.319743 0.872437 0.052305
-0.273613 0.853206 0.121273
-0.209176 0.796826 -0.218660
-0.041625 0.411278 0.198280
-0.182933 0.736743 -0.467791
-0.094957 0.780679 0.223933
-0.184974 0.670807 0.075292
-0.039058 0.645163 0.305905
0.025916 0.955842 0.201989
-0.192620 0.773397 -0.175147
-0.228318 0.760401 0.095160
0.203742 -0.418938 0.208314
0.027501 0.623270 0.204426
-0.138241 0.348340 0.256344
-0.098878 0.461786 0.116027
-0.099127 0.325831 0.249400
-0.277823 0.027718 0.161316
-0.404674 -0.347740 0.261086
-0.096282 0.956257 0.100141
-0.130653 0.470842 0.193195
-0.130328 0.974423 0.212792
-0.177201 0.698572 0.310149
-0.248997 0.833808 0.195294
0.280724 -0.459911 0.229612
-0.189387 0.759841 -0.294219
-0.059606 0.359805 0.268601
-0.154902 1.097019 0.053661
0.077413 0.060115 0.136608
-0.155371 1.007792 0.241279
-0.091346 1.226761 0.152828
-0.058178 0.771361 0.054386
-0.006008 0.426221 0.164859
-0.262283 0.064486 0.120649
-0.242909 0.817107 -0.128881
-0.254573 0.997257 0.133137
-0.022058 0.686096 0.233179
-0.119013 0.292255 0.222082
-0.131089 1.298727 0.111832
-0.267454 0.963777 0.186615
-0.396045 -0.289685 0.243055
-0.112522 0.428175 0.213474
-0.001315 0.769894 0.153701
-0.344588 -0.234035 0.204686
-0.143310 1.218674 0.128643
-0.235687 0.438008 0.252394
0.207766 -0.334686 0.213677
0.091478 0.318645 0.124633
0.118919 0.124417 0.107733
-0.132290 0.558956 0.240703
0.088505 0.506131 0.181698
-0.000961 0.207154 0.141626
-0.190836 0.619169 0.154434
-0.022503 0.997957 0.093853
0.127222 -0.148717 0.228210
-0.051257 0.661389 0.261772
0.293208 -0.460730 0.107510
0.006995 0.884248 0.038307
-0.280589 0.959725 0.143162
-0.242576 0.785919 -0.095308
-0.328688 0.162929 0.135520
-0.108893 1.009985 0.246454
-0.274657 0.483539 0.180471
-0.126522 0.670608 0.101745
-0.040926 0.991380 0.177401
-0.272931 0.109337 0.195861
-0.149237 0.655701 0.165068
-0.386650 -0.208121 0.194677
-0.123459 0.581561 0.119843
-0.295717 0.092296 0.093424
-0.042507 0.454479 0.275312
-0.015113 0.947901 0.105580
-0.115285 1.302571 0.173820
-0.283538 0.182616 0.147105
-0.011388 0.897930 0.095005
-0.238877 0.570506 0.273089
0.199716 -0.459249 0.317770
-0.051139 0.503938 0.274528
-0.163338 0.647651 0.119659
-0.100550 0.724435 0.273562
-0.007525 0.596144 0.072843
-0.242943 0.386201 0.190762
-0.019977 0.276820 0.129743
-0.118513 0.543631 0.161126
-0.054442 0.584860 0.189860
-0.295196 0.307018 0.119548
-0.087012 0.334641 0.160925
-0.086709 0.711432 0.316165
-0.085912 0.512876 0.079286
-0.019937 0.699384 0.289628
0.023943 0.939914 0.081709
-0.155494 0.553892 0.318571
-0.245990 0.527463 0.246122
-0.248161 0.847306 0.034119
-0.238659 0.915250 0.168477
-0.182323 1.086447 0.180360
0.009566 0.416050 0.273997
-0.130195 0.530515 0.070303
-0.232582 0.550826 0.160746
0.198217 -0.192725 0.238991
-0.136831 0.651302 0.234671
-0.217071 0.455355 0.146259
-0.237995 0.714066 0.099705
-0.254709 0.882729 0.000816
-0.205364 0.913769 0.221762
-0.125406 0.966706 0.263416
-0.123518 1.018629 0.190451
-0.367019 -0.122131 0.234470
-0.070743 0.882270 0.194286
-0.014704 0.700428 0.114036
-0.130576 1.174322 0.150171
0.080005 0.330923 0.210545
-0.230406 0.358634 0.157949
0.025820 0.514728 0.131836
-0.231611 0.950046 0.208620
-0.235209 0.756249 0.284969
-0.202402 1.278829 0.153527
-0.100864 0.864069 0.247037
-0.261862 0.426968 0.205624
0.016646 0.748611 0.239641
-0.053715 0.717215 0.264984
-0.275943 0.947858 0.242845
-0.264091 0.600893 0.155398
0.028110 0.915222 0.124621
-0.276625 0.758645 0.213259
0.011402 1.015170 0.128131
0.018108 0.668430 0.184506
-0.095848 0.678948 0.274310
-0.295479 0.930730 0.115295
-0.188846 0.652665 0.306135
-0.182294 0.339157 0.248920
-0.095034 1.194680 0.178671
-0.098862 0.935596 0.147419
-0.087938 0.689418 0.077308
-0.186559 0.963216 0.211275
0.188830 -0.341762 0.259440
-0.092681 0.881609 -0.401374
0.000266 0.659597 0.274215
-0.038788 0.473979 0.317919
-0.147994 0.272083 0.148338
0.110351 0.164521 0.191110
-0.212615 1.041810 0.193049
-0.195813 0.670500 0.157339
0.004718 0.667638 0.065730
-0.086872 0.488010 0.326398
-0.057408 0.714433 0.102429
-0.127574 0.394611 0.240147
-0.333792 0.081558 0.165648
-0.007025 0.962075 0.055141
-0.209843 0.270923 0.186958
-0.167243 0.759218 0.171099
-0.177305 0.790072 0.235774
-0.108975 0.820173 0.206938
-0.006812 0.338242 0.254348
-0.038140 0.576595 0.106169
-0.294871 0.085999 0.143750
-0.027964 0.873982 0.223633
-0.012045 0.544048 0.297904
-0.255989 0.289272 0.101298
-0.312542 0.990656 0.117366
-0.113790 0.910747 0.237547
-0.300848 0.042540 0.102279
-0.249708 0.621752 0.252191
-0.093583 0.519414 0.289355
-0.204387 1.169313 0.188393
-0.163021 0.566813 0.149343
-0.087246 0.665216 0.170848
0.038963 0.495560 0.173407
-0.298750 0.877383 0.011311
0.063566 0.236564 0.216490
-0.197607 0.727549 0.076373
-0.107359 0.751931 0.312795
-0.200820 1.062851 0.140836
-0.330435 0.922892 0.158874
-0.243951 0.886026 0.052220
-0.151399 0.691467 0.140741
-0.157218 0.408620 0.193152
-0.246346 0.190327 0.165522
0.266037 -0.433412 0.162781
-0.200974 1.193478 0.113200
0.031468 0.281588 0.146327
0.019452 0.708940 0.208413
-0.438487 -0.463314 0.215865
0.018406 0.585958 0.174158
-0.302230 -0.037651 0.166985
-0.172593 1.199022 0.155008
-0.290275 0.805553 0.211049
-0.017468 0.919508 0.142355
-0.340979 0.960297 0.133236
-0.069226 0.906988 -0.464108
-0.120645 0.884599 0.291014
-0.186941 0.738485 0.261632
-0.421944 -0.418776 0.226638
-0.255374 0.573564 0.230611
0.058808 0.474464 0.215798
-0.084160 1.015319 0.154129
0.224288 -0.461497 0.196389
-0.030101 0.242919 0.152548
-0.241146 0.533187 0.109210
-0.090863 0.463816 0.157386
0.111996 0.030614 0.123308
-0.127394 0.834490 0.164417
-0.370436 -0.372747 0.239905
-0.243297 0.808152 0.284278
-0.133834 0.750131 0.244845
-0.361462 -0.001933 0.149318
0.011158 0.243411 0.122830
-0.048040 0.497829 0.182106
-0.169408 0.532741 0.260985
-0.028439 0.597954 0.151970
-0.158125 0.711525 0.101691
0.043064 0.334385 0.242232
-0.122291 0.527623 0.207685
0.110102 0.119912 0.195882
-0.158985 0.310007 0.120705
-0.194251 0.881818 0.067648
-0.134845 1.125170 0.175945
-0.096004 1.189636 0.123525
-0.013997 0.519199 0.252566
-0.164822 0.621617 0.202704
-0.108674 0.766250 0.128741
-0.095246 0.547912 0.121352
-0.164271 0.856464 0.191436
-0.031394 0.842763 -0.213410
-0.074584 0.877683 -0.438407
0.219316 -0.366984 0.266364
-0.084686 0.796516 0.159862
-0.209855 0.502985 0.106227
0.040343 0.450265 0.250037
-0.046093 0.966865 0.217820
-0.227216 0.456971 0.191682
0.029910 0.948144 0.158581
-0.364850 -0.058930 0.164869
-0.270966 0.822033 -0.004138
-0.025354 0.743692 0.123533
-0.033169 0.910699 -0.015563
0.063845 0.288234 0.227574
-0.006972 0.838950 -0.108320
-0.142961 0.781654 0.211995
-0.222258 0.836811 0.250888
0.239514 -0.462104 0.174785
-0.390088 -0.233313 0.234139
-0.245821 0.231428 0.212033
-0.027044 0.425677 0.307867
-0.195521 0.283716 0.228062
-0.156605 0.773248 0.278748
-0.256777 0.613782 0.206487
-0.096369 1.292890 0.134007
0.036225 0.360951 0.166419
-0.283274 0.204952 0.200889
0.058114 0.453162 0.167137
-0.158345 0.503028 0.100050
0.023616 0.789046 0.220961
-0.222938 0.761429 0.239467
-0.276673 0.525175 0.144718
-0.173581 0.596124 0.109092
-0.012300 0.946082 0.188177
-0.124440 0.687841 0.189983
-0.128756 0.735626 0.199265
-0.227466 0.320417 0.190205
0.254963 -0.458901 0.130606
-0.031960 0.921101 0.227231
-0.046551 0.529942 0.220271
-0.003420 0.500000 0.295292
-0.221944 0.958412 0.253974
-0.131456 1.227004 0.185716
-0.138632 0.755720 0.091360
0.024075 0.463352 0.133661
-0.110171 0.634211 0.141235
-0.092023 0.861938 0.127020
-0.040732 0.550182 0.068077
0.121748 0.168805 0.118954
-0.188463 1.173210 0.074319
-0.104249 0.372997 0.276566
-0.073816 0.841266 0.088720
0.171324 -0.308756 0.231515
-0.063092 0.616987 0.225191
-0.236134 0.185110 0.212257
-0.197538 0.741353 0.304713
-0.035540 0.858566 -0.076007
-0.000709 0.876769 0.149024
-0.128514 0.700636 0.318570
-0.111251 0.817967 0.124327
0.058420 0.319682 0.161551
0.062070 0.532227 0.078981
-0.334091 0.027148 0.182472
-0.240860 0.696475 0.153002
-0.174515 0.968665 0.258083
-0.318786 0.180625 0.177625
0.031559 0.170907 0.203296
0.036959 0.129048 0.178693
-0.029346 0.318846 0.114701
-0.234855 0.414013 0.153209
0.195437 -0.173456 0.199833
-0.179791 0.743487 0.214728
-0.052412 0.832751 0.297694
-0.243482 0.933317 0.119783
-0.171791 0.461418 0.101106
-0.104181 0.690646 0.141067
-0.040505 0.668902 0.098752
0.077450 0.158385 0.105908
-0.189377 1.270996 0.200801
-0.287194 0.921534 0.167252
-0.270866 0.275478 0.142060
-0.138380 1.077812 0.182158
0.034882 0.576067 0.225725
0.036999 0.898823 0.078393
-0.014190 0.469484 0.102325
-0.152840 0.305138 0.233093
0.014397 0.366094 0.213089
-0.007136 0.474894 0.160379
-0.029454 1.025802 0.215402
-0.205508 0.419964 0.219985
-0.241907 0.755012 0.139030
-0.063368 0.888498 0.101983
-0.270185 0.976459 0.092701
0.114908 0.052364 0.161808
-0.181876 0.510191 0.313357
-0.316900 -0.084081 0.180834
-0.096599 0.419259 0.133631
-0.220466 0.818323 -0.069700
-0.057489 0.826691 0.134135
-0.087717 0.633337 0.266458
-0.148014 0.574131 0.072864
-0.149673 0.914267 0.147461
-0.122907 0.475990 0.069421
-0.159479 0.803768 0.093246
-0.323503 0.214119 0.135539
-0.011588 0.595184 0.214789
-0.250085 0.518995 0.200953
-0.093533 0.657524 0.316221
-0.024709 0.898123 0.183758
-0.110044 1.163097 0.082350
-0.072697 0.900698 0.152906
-0.266133 0.896291 0.132672
-0.148190 0.952306 0.178269
-0.023999 0.845801 0.104607
-0.111807 1.209465 0.084642
-0.116808 0.466210 0.239497
-0.143770 0.677536 0.275207
-0.283862 0.893767 0.087738
-0.189852 0.260253 0.127736
-0.221509 0.992915 0.185612
-0.133064 0.500419 0.329264
-0.199687 0.684875 0.114150
-0.315613 0.231517 0.177872
-0.025172 0.554498 0.180871
-0.212418 0.360237 0.110561
-0.229442 0.864492 0.141841
-0.220067 0.462188 0.103985
-0.343749 0.016000 0.104671
0.075707 0.541273 0.138415
-0.157662 0.443356 0.224782
-0.074563 0.293983 0.225643
-0.089386 0.951569 0.229594
-0.048426 0.533214 0.109382
-0.003325 1.028966 0.172117
-0.180301 1.127156 0.073870
-0.212543 0.706587 0.236339
-0.348770 -0.021993 0.197721
-0.026785 0.874279 0.280997
-0.293362 0.837880 0.029367
-0.160370 0.704801 0.230718
-0.054045 0.523853 0.317673
-0.170451 1.267867 0.116672
-0.081673 0.655618 0.115923
0.005728 0.326707 0.153493
0.036374 0.484513 0.088359
0.233465 -0.463389 0.284486
0.151187 -0.167744 0.194741
-0.128591 0.638727 0.283039
-0.032326 0.788407 0.291873
0.197867 -0.270458 0.216191
-0.331034 0.116758 0.129099
-0.109608 1.158960 0.199220
-0.257518 0.658473 0.206168
-0.093110 1.151559 0.156734
-0.138451 0.769043 -0.432998
-0.116923 0.603796 0.311812
-0.302980 0.836318 0.172811
-0.050573 0.552290 0.275284
-0.091095 0.769557 0.270115
-0.233776 0.141945 0.186077
0.167639 0.013725 0.139979
-0.289668 0.895681 0.242026
0.024502 0.993686 0.168326
-0.200237 0.830560 0.211704
-0.316351 0.263987 0.135961
-0.243262 0.647452 0.158903
-0.030339 0.636731 0.059815
0.190191 -0.141126 0.235075
-0.149157 0.787110 0.136762
-0.161147 0.269374 0.195988
-0.202373 0.231222 0.210782
0.157320 -0.254983 0.225579
0.068288 0.098535 0.196261
-0.042877 0.871827 0.141168
-0.141811 0.394743 0.142285
-0.099552 0.293162 0.176702
-0.070406 0.787042 0.111067
-0.271576 0.485268 0.122509
0.052165 0.094299 0.154274
0.103612 0.070879 0.202469
0.176287 -0.044787 0.203749
-0.170839 0.367959 0.173253
-0.310664 0.936820 0.209908
-0.058211 0.556585 0.148995
-0.031360 0.453951 0.198290
-0.214529 1.209442 0.166743
-0.017775 0.638790 0.232038
-0.206939 0.838147 0.296292
-0.278128 0.400034 0.161630
-0.075240 0.621636 0.178821
-0.261355 0.911688 0.208039
-0.040977 0.847505 -0.128091
-0.152980 1.174206 0.108158
-0.334467 0.069894 0.105535
-0.176144 0.830503 0.262415
-0.062449 0.328599 0.200294
-0.086240 0.735659 0.227544
-0.071943 0.334327 0.116566
-0.054518 0.696580 0.144594
-0.123651 1.113884 0.083452
0.083522 0.373357 0.186439
-0.285166 0.256635 0.208808
0.120454 -0.097140 0.225296
-0.253186 0.334591 0.111013
-0.144733 0.311860 0.177189
-0.081043 0.844404 0.169795
-0.336148 -0.033305 0.131968
0.004457 0.869702 -0.009505
0.005225 0.577300 0.269945
0.182882 -0.460437 0.264692
-0.224319 0.765800 -0.200592
-0.262123 0.323617 0.162232
-0.091974 1.232197 0.212165
-0.202692 1.236222 0.130839
-0.071131 0.466644 0.078508
-0.016971 0.331567 0.199740
-0.005959 0.879891 -0.099332
-0.296272 0.192253 0.103810
0.158473 -0.170204 0.253997
0.111225 -0.035515 0.170770
-0.133024 0.604044 0.260142
-0.249497 0.933547 0.073159
-0.256625 0.162021 0.103848
-0.167191 1.040357 0.165672
0.017549 0.296144 0.111783
-0.269761 0.562492 0.185654
0.149471 0.045295 0.110258
-0.188207 0.790070 0.306507
0.040975 0.193426 0.120908
0.021050 0.259522 0.223585
-0.069529 0.899704 0.240964
-0.216177 1.170135 0.143234
-0.193092 0.389323 0.139314
-0.312558 -0.050259 0.216926
-0.254496 0.862584 0.270364
-0.223379 0.157067 0.135993
-0.173746 0.408257 0.100052
-0.140521 1.247458 0.086488
-0.278139 0.793395 0.162815
-0.065726 0.285845 0.135412
-0.295868 0.855273 0.218074
-0.425235 -0.455862 0.146433
-0.211050 0.608792 0.287504
0.175925 -0.083864 0.177691
-0.211884 0.788378 0.068456
-0.054913 0.746034 0.302800
-0.183340 0.322235 0.200344
-0.248256 0.206960 0.111781
0.160353 0.050588 0.158663
-0.055463 0.687756 0.307618
-0.425471 -0.419069 0.184504
-0.228231 0.295804 0.144855
-0.040087 0.610730 0.265274
-0.284301 0.363704 0.189734
-0.187066 1.095178 0.105996
0.065568 0.286572 0.110873
-0.231943 0.499307 0.155031
-0.210320 0.636985 0.194264
-0.118792 0.882595 0.160693
-0.255893 0.114528 0.107771
-0.233253 0.251574 0.112503
0.213434 -0.241282 0.236771
-0.204747 0.903871 0.134015
-0.170290 0.540779 0.206309
-0.126436 0.624309 0.098504
-0.243885 0.870922 0.223631
-0.187195 0.581178 0.182889
-0.047652 0.678932 0.053176
-0.201229 0.931614 0.084081
-0.168917 0.876959 0.289743
-0.037071 0.376306 0.110193
0.030974 0.493553 0.258365
-0.013916 0.973015 0.143607
-0.002496 0.641055 0.104986
-0.163903 1.035345 0.118837
-0.035249 0.918714 0.063780
-0.109482 1.194514 0.225863
-0.126174 0.390310 0.100100
0.110501 -0.045826 0.215482
-0.113107 0.335035 0.200840
0.137796 0.038706 0.200094
-0.153105 0.511756 0.169806
-0.191084 0.335382 0.150183
-0.171571 1.151179 0.153140
-0.152316 1.291448 0.191643
0.026459 0.214753 0.217109
-0.224961 0.325675 0.235276
0.061918 0.373192 0.224068
-0.192443 0.927300 0.175862
-0.042472 0.621250 0.106087
-0.038954 0.789871 0.162994
-0.053476 0.659626 0.203011
0.016562 0.873064 0.206351
-0.000735 0.548571 0.220290
-0.213134 0.882109 0.279128
-0.074105 0.917630 -0.418007
-0.381670 -0.171187 0.234110
0.032174 0.621031 0.069922
-0.011206 0.745615 0.276717
-0.296663 0.987128 0.214153
-0.359034 -0.317475 0.243298
0.144013 -0.203347 0.222120
-0.306976 0.280974 0.178649
0.134337 0.185858 0.160556
-0.114112 0.921344 0.191415
-0.042439 0.571886 0.237536
-0.239465 0.801681 0.228031
-0.466624 -0.459964 0.224139
0.255783 -0.420937 0.225662
-0.216844 0.553759 0.205647
-0.041262 0.874055 0.068376
-0.117647 0.347201 0.111607
0.099892 0.007417 0.202423
0.088550 0.137443 0.152998
-0.200535 0.411305 0.178777
-0.051321 0.944414 0.164751
-0.419488 -0.461723 0.300254
-0.057782 0.929249 0.115706
0.143359 -0.015601 0.217064
-0.123646 1.046114 0.140733
-0.144474 0.923308 0.275869
-0.260510 0.727518 0.251648
-0.122215 0.563193 0.285448
0.073896 0.233673 0.157712
0.045639 0.377929 0.124541
-0.065946 0.443591 0.232984
-0.113721 0.306746 0.133303
-0.085905 1.264996 0.174090
-0.190631 0.920399 0.268357
-0.380472 -0.463471 0.252976
-0.068814 0.878636 -0.329557
-0.322548 -0.100728 0.230926
-0.403810 -0.378212 0.212956
-0.094526 0.655908 0.221635
-0.165301 0.357240 0.112401
0.230313 -0.415092 0.177068
0.034564 0.421015 0.135620
-0.117067 0.699006 0.235087
0.022058 0.374525 0.259939
-0.077635 0.398834 0.232050
0.029688 0.402150 0.182577
-0.339682 0.043131 0.140706
-0.073648 0.511340 0.145661
-0.164695 0.609859 0.305780
-0.159765 0.900151 0.195250
-0.355479 -0.107079 0.168492
-0.120695 0.447590 0.322804
-0.439802 -0.465764 0.115337
-0.382847 -0.420391 0.214193
-0.305704 0.322534 0.164875
-0.224252 0.704579 0.286493
-0.184711 1.175847 0.228797
-0.254117 0.383943 0.120734
0.112570 0.076272 0.103209
-0.127590 1.233323 0.244673
-0.169780 0.981042 0.112928
-0.218538 0.416664 0.106485
-0.311967 0.875955 0.142779
-0.055850 0.481895 0.119540
-0.047671 0.762071 0.246231
-0.203096 0.831115 0.163864
-0.159749 0.495073 0.219852
-0.070233 0.693168 0.231090
-0.129077 0.433235 0.164228
-0.216910 0.518362 0.285571
-0.048386 0.323537 0.245046
-0.012310 0.899272 -0.054048
-0.257497 0.475312 0.227316
-0.102888 0.731014 0.163498
-0.125586 0.510409 0.251194
-0.116839 1.098632 0.139533
0.028646 0.539473 0.266495
-0.164108 0.829372 0.133956
-0.267361 0.871799 0.174844
-0.129804 0.800259 0.258136
-0.253926 0.991712 0.237711
-0.063820 0.995714 0.103513
-0.267286 0.449765 0.161240
0.021746 0.832189 0.228543
-0.171626 1.004318 0.194140
-0.174170 0.434210 0.141394
0.051985 0.242786 0.114579
-0.111976 0.607351 0.222054
-0.335210 -0.183561 0.201058
0.078384 0.497327 0.131201
-0.129046 0.793357 0.309210
-0.239566 0.391879 0.234733
-0.014901 0.245082 0.199253
-0.252407 0.799622 0.116334
-0.026007 0.287573 0.225404
-0.048859 0.279085 0.181800
-0.100968 0.584858 0.167477
0.141386 0.088870 0.180720
-0.313805 0.823337 0.128108
-0.150038 0.357562 0.212339
-0.200527 0.556415 0.301492
-0.080728 0.642888 0.065728
-0.244224 0.856427 -0.051295
-0.145000 1.151597 0.222243
-0.143375 0.655313 0.318789
-0.172492 0.667002 0.208816
0.169617 -0.224739 0.256580
-0.154721 0.933001 0.227510
0.081977 0.361348 0.140340
-0.256131 0.351480 0.221286
0.038828 0.864073 0.125714
0.117299 0.287909 0.145948
-0.182127 0.438262 0.261559
-0.171517 1.218007 0.206438
-0.048687 0.402136 0.147768
-0.111743 0.792052 0.086271
-0.227133 0.596375 0.176421
-0.082608 0.748130 0.088372
-0.124600 0.474824 0.286763
-0.070429 0.758153 0.190847
-0.184117 0.975698 0.159038
0.186524 -0.415349 0.252427
-0.300098 0.140685 0.100713
-0.231731 0.772114 -0.147201
-0.121292 0.631833 0.188360
0.090952 0.010016 0.156623
-0.185228 0.293126 0.160187
0.011396 0.597586 0.118282
-0.090536 0.569957 0.215300
-0.215396 0.689053 0.195380
-0.039204 0.952251 0.271019
-0.171548 0.873725 0.151661
-0.370619 -0.464052 0.308572
0.101588 0.095714 0.154264
0.154935 -0.116925 0.249748
-0.112780 0.503762 0.121703
0.032472 0.968193 0.123397
-0.262853 0.702903 0.204652
-0.135797 0.956644 0.134754
-0.136614 0.862430 0.116296
-0.034951 0.878726 -0.241913
-0.179083 0.763012 0.106436
0.180430 -0.275770 0.262757
-0.209662 0.633737 0.114528
0.001591 0.956399 0.243032
-0.028971 0.792304 0.115099
0.023279 0.851146 0.174942
-0.001906 0.516807 0.090858
-0.047816 0.645662 0.148034
-0.151772 0.883327 0.242732
-0.331637 -0.153518 0.236288
-0.166939 0.586382 0.229006
-0.187260 0.547703 0.104964
0.131964 0.004953 0.171425
-0.051174 0.959980 0.079417
-0.021782 0.776059 0.209290
-0.175167 0.631537 0.257599
0.072896 0.191119 0.212832
0.019171 0.914422 0.223126
-0.239332 0.108158 0.149861
-0.407317 -0.463435 0.220534
-0.203262 0.558632 0.248404
-0.139243 0.432314 0.268882
-0.195635 0.859800 0.111681
-0.181063 0.737779 -0.424638
0.186403 -0.219494 0.201771
-0.279477 0.311562 0.209454
-0.161297 0.750347 -0.384441
-0.192837 0.872176 0.235231
-0.199563 1.116538 0.148576
0.255254 -0.461798 0.257832
-0.085811 0.500783 0.227102
-0.176870 0.458717 0.182646
-0.282181 0.911406 0.035908
0.014684 0.751134 0.191521
-0.332473 0.904222 0.109309
-0.205705 0.788968 -0.120066
-0.104223 1.244705 0.113743
-0.109311 0.541421 0.327050
0.027719 0.907248 0.175562
-0.080233 0.465099 0.198892
-0.169441 0.483596 0.265747
-0.220309 0.971005 0.108437
0.006143 0.456955 0.289614
-0.051104 0.844336 -0.176156
0.139113 -0.122166 0.188336
-0.143799 1.000307 0.153375
-0.079671 1.043901 0.218668
-0.104915 0.500955 0.175376
-0.029110 0.728358 0.219557
0.229296 -0.380719 0.214554
-0.092150 0.375734 0.145337
-0.167533 0.423796 0.307898
-0.105239 1.140601 0.117731
-0.201365 0.784570 0.196378
-0.063873 0.973036 0.135764
-0.200441 1.143714 0.109190
-0.034480 1.019265 0.134538
-0.247579 0.824509 0.150317
-0.245799 0.665845 0.103551
-0.231753 0.738753 0.208054
-0.113584 1.270767 0.211567
-0.153438 0.746260 0.316842
-0.148004 1.076483 0.100310
-0.088513 0.562374 0.076656
-0.011821 0.878189 -0.147054
-0.139647 0.472769 0.140520
-0.080118 0.998162 0.205696
0.005682 0.346134 0.114679
-0.072353 0.616119 0.311655
-0.113269 0.991521 0.126576
-0.145861 0.608236 0.153008
0.049452 0.278104 0.189425
-0.204228 0.812404 0.112891
-0.324570 -0.136473 0.189734
-0.203393 0.366133 0.206823
-0.104367 0.432963 0.076737
-0.024987 0.992080 0.252073
-0.057420 0.874764 -0.291792
-0.056280 0.430400 0.106604
0.071486 0.406329 0.157428
-0.012803 0.376269 0.176426
-0.073427 0.707599 0.188925
-0.319506 0.852469 0.092544
0.004673 0.715566 0.161133
-0.058120 0.724426 0.053454
-0.097311 1.058477 0.180396
-0.490431 -0.462695 0.188074
-0.001105 0.286554 0.180110
-0.169536 0.708292 0.180551
0.100315 0.254122 0.116942
-0.260969 0.736641 0.172007
-0.277155 0.853357 0.067993
-0.040477 0.313965 0.160295
-0.032647 0.891357 0.021937
0.014566 0.301087 0.234620
-0.184479 0.941459 0.127611
-0.212742 0.652830 0.236032
-0.006630 0.825809 0.143282
0.077253 0.276217 0.155025
-0.285681 0.243843 0.105615
-0.087028 0.540983 0.249982
-0.382668 -0.269772 0.215407
0.075885 0.107526 0.113427
-0.081090 0.384009 0.102622
-0.145476 0.536403 0.122609
-0.093522 0.919728 0.079606
-0.218885 1.249421 0.187872
-0.294081 0.951685 0.067028
-0.498602 -0.461946 0.184592
-0.049689 0.911923 0.282215
0.023663 0.243682 0.169770
-0.080107 0.892253 -0.367212
-0.243070 0.912014 0.257795
-0.091698 0.605173 0.085878
-0.061924 0.853242 -0.218189
-0.205069 0.790820 0.268212
-0.019116 0.824758 0.221188
-0.067856 0.747064 0.140083
-0.260022 1.018389 0.201192
-0.069345 0.843486 0.216525
-0.201890 1.244576 0.237980
-0.180407 1.225421 0.088752
-0.177098 0.758574 -0.338434
0.146194 0.090394 0.129689
-0.069154 0.927117 0.197513
-0.203974 0.832329 0.063388
0.010972 0.910831 -0.006459
-0.090590 0.361087 0.227258
-0.097774 0.970587 0.175023
-0.076709 0.537704 0.187262
-0.092247 0.427062 0.269315
-0.151563 1.129260 0.117600
0.103840 0.331680 0.168969
0.103468 0.293326 0.192376
-0.055833 0.808932 0.072329
-0.117852 0.834465 0.077733
-0.332285 0.952230 0.091933
-0.203871 1.012324 0.138068
0.084742 0.206591 0.107999
-0.271259 0.778920 0.255335
-0.264319 0.439535 0.117615
-0.176755 1.131662 0.196641
0.007778 0.628139 0.154711
0.204043 -0.461710 0.225978
-0.241669 0.784388 0.182890
-0.071450 0.899103 -0.433677
-0.033745 0.370493 0.227225
0.045492 0.206384 0.170932
-0.141400 0.519782 0.291290
-0.118899 0.405626 0.303873
-0.052457 0.852163 0.254767
-0.382987 -0.418636 0.266803
-0.135448 0.348143 0.154258
-0.170343 0.579259 0.274832
0.150316 -0.063758 0.236565
0.008587 0.871866 0.251193
-0.092251 0.928126 0.279648
-0.030434 0.843908 0.180114
-0.210024 0.370008 0.258420
0.067892 0.423038 0.202606
-0.205525 0.411368 0.280732
-0.274538 0.231058 0.155351
-0.133376 0.845143 0.268569
0.002787 0.386407 0.129788
-0.137805 0.575817 0.192297
-0.258384 0.070427 0.171129
-0.228074 0.237562 0.161008
0.022816 0.925140 0.037877
-0.265921 0.568298 0.116844
-0.242203 0.279511 0.224814
-0.022886 0.935470 0.022053
0.124003 0.246832 0.163965
-0.194783 0.726822 0.134111
-0.297840 -0.000867 0.134139
0.217079 -0.296379 0.242153
-0.008415 0.456710 0.243790
-0.055289 0.596983 0.059635
-0.033881 0.736767 0.172400
-0.003452 0.518699 0.179337
-0.065449 0.397710 0.297597
-0.182522 0.489099 0.142364
0.019673 0.449481 0.198167
-0.150661 1.180629 0.192380
-0.203629 0.776973 -0.260607
-0.258162 0.807428 -0.046244
-0.202315 0.502098 0.190739
0.056227 0.576744 0.072346
-0.276965 0.829218 0.250312
0.002830 0.858301 -0.056353
-0.207635 1.007511 0.233549
-0.001014 0.204231 0.184336
0.138848 0.135447 0.155377
-0.075108 0.439437 0.319376
-0.109564 0.718923 0.108862
-0.156822 1.256835 0.229896
-0.301941 -0.000211 0.196593
-0.006766 0.554073 0.136804
-0.277736 0.156222 0.200339
-0.024744 0.510572 0.139364
-0.021972 0.631989 0.186377
-0.156519 0.830802 0.304838
-0.015849 0.711317 0.065035
-0.385096 -0.108161 0.196118
-0.180377 1.217837 0.258132
-0.202465 0.467691 0.229821
-0.085142 0.588005 0.265910
-0.173394 0.393022 0.238509
-0.202645 0.189106 0.177792
0.195919 -0.413134 0.273010
-0.172779 1.051236 0.218080
-0.345340 -0.204853 0.238021
-0.060208 0.804178 0.200659
-0.252755 0.679228 0.251304
-0.164932 0.847854 0.081674
-0.260167 0.828733 -0.083831
0.186719 -0.128008 0.191672
-0.162830 0.808751 0.180517
0.129335 -0.075623 0.181430
-0.170522 0.623503 0.071336
0.042897 0.140124 0.130506
-0.323542 0.973448 0.172177
-0.217223 0.581956 0.119144
-0.119231 0.778751 0.175131
0.003588 0.995308 0.209836
0.070475 0.142833 0.209087
