-1.2519853 6.4248533 0.50757957
0.85038555 9.737234 -0.12024449
1.5374596 3.2815375 -0.3798291
-1.6227458 8.226341 0.54439545
0.31569368 10.633953 0.16517827
0.6423496 1.0717838 0.16885373
-1.380682 1.1737008 1.2787681
2.529171 8.403612 1.2230227
-0.1328252 9.601961 -0.24053723
1.0859404 7.1849413 0.4206429
-0.072817 7.6314917 1.5853329
2.1910782 -0.36253834 0.34916997
2.1107616 -1.7962685 0.6047504
1.5337462 3.0798025 0.004510085
-2.7953024 9.897869 0.60292256
-1.526793 9.774656 0.035739042
-0.9259335 7.295232 1.5045946
-0.7902988 3.8779302 1.2054105
-2.117138 0.27813268 0.27402782
-0.019135604 12.322458 0.46179432
-0.054379225 9.739412 0.2469812
-4.691839 6.6339808 -1.6891918
-1.5390475 0.040670335 0.9551978
-0.28100556 6.7383127 -0.5084679
-0.4198565 2.4497342 -0.06007459
-1.9613025 0.19160706 1.0792458
0.19498304 7.496423 0.011561269
-0.720163 10.119947 0.64494157
-1.6119361 0.853395 1.1642337
-3.9118505 8.268204 0.6788868
1.1992056 7.032014 1.1968694
-0.56264055 11.882971 0.58024967
0.7097696 5.34671 1.6579094
-0.35210478 2.8790002 0.49511588
-2.6640296 6.8782854 -0.8651222
-0.26850516 2.4747643 0.34098017
2.1060648 1.4980259 0.213171
0.44128358 1.7832193 0.26196885
2.4051526 8.856171 1.1308918
-0.0665492 4.8595543 -0.6704575
1.7612069 2.1147008 0.9812741
-3.4070778 6.6450367 -0.85607207
-4.529022 7.7347975 0.24915595
-1.7195313 7.5388746 0.36114854
-0.71313286 11.9594345 -0.6582644
-0.93603957 10.654875 0.6692207
-1.3822773 -0.5590719 1.2266369
2.5797262 6.912999 0.33649528
1.6844006 0.50614786 1.0788691
-0.36682332 7.4132137 0.6131929
1.1362107 7.2558517 -0.034025833
0.31085712 5.4204826 1.8362491
0.5938498 8.157003 0.05851827
0.03393264 4.8722315 1.4939466
-1.9903412 0.6343032 0.07693407
-1.0877998 2.1882014 1.323026
-2.1567311 -1.1603556 0.77517414
-1.0414298 3.7957869 0.820711
-0.33389366 8.033371 0.6633048
-0.47455692 8.584051 0.98258567
-1.6542525 10.650936 0.8457762
-3.1572032 6.941389 -1.4186487
0.39308542 8.91744 0.8823947
2.095388 -3.9048014 0.7256069
0.6930659 3.8490863 1.1895075
0.49334657 6.38208 -0.038485385
-1.9567118 3.5110092 0.19885188
-4.5295706 7.3877726 0.41822267
-1.7053697 1.0922043 0.50926197
0.9198661 8.52499 0.6098677
0.9373195 5.6919785 1.5386353
1.2063513 0.009106444 1.0086069
-1.0518179 3.0541387 0.043363087
-1.278758 7.018244 1.0866363
-1.842154 10.4060955 0.22040817
-3.947134 5.912463 -2.0511737
0.09027545 9.617723 1.1264992
-0.73673606 12.6588955 -0.57836115
-1.5522304 0.8195362 0.17767149
-0.9139135 6.6847763 1.1233908
0.20040351 5.806634 1.8670802
1.0935509 7.3350115 1.4350247
2.4853468 6.7873354 0.77073324
1.400306 -0.19497597 0.55541015
-0.22361684 11.603628 -1.0138535
0.039478436 3.5813751 -0.12535274
-0.15126199 6.1210194 0.4265021
0.38089532 7.144514 0.71079886
1.2514563 5.28891 0.6968241
-2.2648869 8.665527 0.55173135
-0.54143834 13.06547 -0.61275065
-1.3293347 5.4986486 0.36581331
0.9446169 2.9837894 0.15313542
1.5263991 2.7709146 1.0702167
-0.52006006 7.5816183 -0.011847915
0.5445396 13.0133915 -0.17614308
-0.18238616 8.457256 1.5732696
-1.441993 3.4107666 1.2090821
1.2249268 9.820414 -0.017232276
2.0686164 -0.7301935 0.22837049
-0.8744601 6.926507 0.053732663
-0.5994097 11.413927 0.33224535
-2.0810647 9.429684 0.52178955
-2.8830605 9.113404 1.0513289
0.4653626 7.425685 -0.28335238
0.95805717 7.8977375 1.1686492
-0.2257058 7.5614176 0.27110815
-0.66418195 4.8737707 1.0378637
1.0632842 5.254511 0.054286264
-1.0174093 2.6222534 0.6262245
-0.93744755 12.47504 0.16932788
-1.0195746 4.0892725 -0.48386914
1.2735224 3.1268191 0.27238643
0.45417804 1.7593403 0.65885496
0.7363057 7.632656 0.8992158
-4.7420435 6.7446747 -0.46942818
2.2807875 -3.943224 0.34734434
-1.7068319 7.176958 0.54215837
2.8238306 7.5928354 1.2030458
-0.7516711 1.2578375 0.8731004
-2.4169426 -4.5960426 1.3113496
1.5306077 6.450659 0.7998779
-1.5623071 -0.8068061 0.8604635
-0.37342483 12.47714 0.605157
0.875401 2.8657923 1.1739993
-4.1170263 7.4620275 0.69332623
-1.8809423 8.992479 0.4675625
0.7067478 9.820852 0.2694747
-2.1856775 10.26803 0.16700786
0.14608487 9.495207 1.5194867
-0.84483063 8.495306 1.1186526
-2.5531678 -3.9525886 0.74252367
-1.3482158 6.6289253 1.0873086
1.5830185 5.5490522 0.7518892
0.010720007 10.8363285 0.3692754
-0.8315278 3.455019 -0.11993329
0.57025397 2.5146284 0.5532266
-1.8652835 -1.635555 1.4435337
-0.27132457 13.3691635 -0.61459374
2.030785 10.205847 0.4455009
-0.9769264 5.744527 0.5695491
1.1148527 0.73235106 1.0865476
0.23327103 4.810685 0.71493125
-1.3434708 8.009081 1.1153598
-4.538309 7.2601795 -0.22591603
1.6438806 0.94904935 0.14368671
-0.2483947 8.809858 0.32672608
-2.3157077 -4.5973616 0.698699
0.41257864 2.4336934 1.1409061
-0.9703561 9.176821 1.1565068
0.12474902 3.911685 0.11427918
-0.668659 5.2546425 -0.5045203
-1.9460225 9.967548 1.0171638
-0.17892662 8.271267 1.2245848
-0.7601285 4.2696104 -0.21253932
0.16431269 12.578913 0.20861629
2.8770747 7.3565073 0.79244936
-2.1146755 -0.0581877 0.08361933
0.9353889 8.149767 1.4993815
0.65545654 2.853785 0.33668017
0.4440905 5.488188 0.59920347
-0.52266955 3.065784 1.2135253
-3.619412 7.784273 -1.5573745
-0.500329 5.896476 1.4333789
0.7574347 6.477724 0.7418792
-0.12051538 7.9774475 0.3144008
-1.8964298 4.5993013 0.4035824
2.315477 7.8654985 0.9163511
1.8952477 8.634584 1.0641675
1.3563545 3.8000813 1.269841
-0.21069762 11.838097 -0.5760982
-1.6553915 9.937637 0.7684941
0.034195647 5.592098 0.80253863
1.196796 1.5528324 0.061580487
-0.32427317 2.8892803 0.8667141
-1.0383177 0.6152053 0.9197463
1.4799645 7.2144375 0.5366596
-3.4279304 6.3110905 -2.1123824
-3.1005454 6.446161 -1.0684526
2.1370673 4.758478 -2.252955
1.9474473 1.3726149 0.8012595
-0.4844004 3.570403 0.5086068
-0.5774869 9.036444 -0.29316247
0.74829483 7.24063 1.618238
-0.29677457 12.086321 0.41363662
-0.025559023 12.233379 0.090896085
0.67996156 5.8718586 1.2911053
-2.06314 -1.2636411 1.4479387
-0.20776746 6.6911774 0.8880874
-0.059176937 8.226934 0.0055442005
-3.8025231 6.197445 -1.3427238
-0.61370444 8.825705 1.597748
0.053182244 5.868616 0.072515205
-0.8818356 9.16794 0.7654469
-1.2122238 8.010952 0.12471202
-1.6149344 0.42525017 1.0714645
-1.7498586 4.5606184 0.019033685
0.08876781 8.7202015 0.51585984
0.54712796 12.6715355 -0.16187292
-3.2825823 5.8750362 -2.0393972
-0.76379514 5.4127417 -0.12801209
-1.7864931 1.2377839 1.26648
-1.6813412 2.8147635 0.38456643
-3.3056598 8.916069 1.0406046
1.248025 4.952177 1.3553274
0.4168464 10.34519 0.44551295
1.8199973 10.461407 0.58229315
-4.1798687 8.087242 0.8985157
-0.99478304 4.935568 0.79661965
0.9339769 10.101852 0.019588653
-1.9687254 -1.4555595 0.714959
1.3142276 6.6427402 0.16027099
1.1231949 10.776388 0.49585068
0.6572586 8.246115 0.4752494
1.344913 3.4142976 1.215239
1.6090379 3.179638 1.0327606
-0.14231083 8.367744 0.8145498
-2.8470898 6.976679 -2.3782501
-2.1265492 1.6365969 0.39236492
-2.8059254 -4.544507 -0.7149254
-0.743109 9.182339 1.5292838
-1.9979246 -2.7858152 1.3091395
1.0646985 10.117292 1.2644539
-2.010429 3.8361278 0.43300146
-0.48106027 12.666203 1.0092883
1.0350463 0.33806598 0.8257822
-2.0079837 -3.9871726 0.7618667
1.4937248 4.7526436 -0.17144644
-4.73555 7.370981 0.015232087
-2.0244288 1.2731881 0.2238839
-1.3797462 3.168046 0.7980474
0.67260516 4.668235 1.7499185
-0.70897365 3.3857741 1.3894386
-2.1916099 -0.09731226 0.9713975
-0.48335916 8.60618 1.3418219
2.14564 8.827187 0.8450731
0.9942132 5.1174526 -0.40914994
-1.1934557 6.7140894 0.74804294
-0.17291516 13.652939 0.08072908
1.1716402 4.24084 0.92251
0.10102491 5.5998497 -0.64875686
-1.4899526 2.7722278 0.76035774
1.207242 4.960923 0.95462704
1.5310619 10.169807 0.4424252
-0.6456928 5.5000696 0.49031407
0.86524117 8.750868 1.1823614
-1.7204797 8.514035 0.045283355
-0.9868845 8.391829 0.7332344
-0.40423733 2.1604853 0.5272138
-1.1784632 5.485813 -0.027705815
0.41781837 2.947486 0.6218406
-0.571734 6.3285046 0.38213754
1.4762461 9.016169 0.5053797
0.32803726 3.6386156 1.5039544
0.5184419 10.030575 0.65336215
0.0336823 7.3508005 0.72729814
-0.12435867 7.9564705 1.0114872
-1.8979836 -0.88852215 1.5519953
-1.0438652 0.21894652 0.50802934
0.013318786 11.351706 -0.24376258
-0.91507995 3.4608555 0.66924834
2.3546948 5.3006535 -0.94617677
-3.6549883 6.983961 -0.9955696
0.28887182 9.95454 0.9934876
-1.4269168 5.2516565 -0.27881533
1.5345783 9.701603 0.39176112
0.59693384 6.0880775 0.9766966
0.8055558 5.471964 1.2556925
-0.9778725 10.283955 0.90921855
1.3627379 -0.7812369 0.20001954
-2.0892792 -4.6290045 1.0115557
-0.36082977 12.897579 0.66899514
-0.93668723 6.7017 -0.30563366
0.15788448 5.1697254 -0.656482
0.70124614 1.0700195 0.57501066
0.18181092 8.509922 -0.32118964
-1.4276557 2.1037426 -0.28525752
1.3432748 4.928301 0.563274
0.24583393 6.510867 0.33705878
0.29452592 9.064892 0.50993407
0.44751507 5.973008 -0.09469256
2.0872483 1.9103599 0.3597777
-4.050209 5.773819 -1.705452
1.9136295 1.0620506 1.0615892
2.263358 5.467593 -1.2036381
0.14271924 4.247588 1.1689498
0.40296662 9.205633 0.09708053
0.95025885 -0.73693514 0.5101588
0.4312814 13.282728 0.048839383
2.069323 -4.1738586 1.0643063
-0.74541736 2.354476 1.2970126
0.7863184 7.0753183 1.2513008
2.5296097 6.118064 0.054245047
-0.50009537 2.25004 0.9098617
-0.9005929 2.465558 0.992043
0.9754069 4.8550024 -0.064251766
-0.937047 8.553865 1.4934591
1.0590205 9.595352 0.27189338
-0.16062158 8.055428 1.5939593
-2.7724166 6.480276 -0.82508576
0.21068147 12.616501 0.8569107
0.007905282 8.61949 0.050649352
1.1040089 3.828302 0.65844524
1.2696598 5.6868696 0.099592805
-1.7720141 0.299693 0.64462054
-1.0154097 7.3217974 0.47706008
0.55917907 4.442955 -0.5472795
-0.5185859 10.140131 0.9996222
-1.7760749 2.3873878 0.5476686
1.0670166 2.2706447 1.2744083
1.2664526 0.22212344 -0.0021464273
2.7805386 6.3694983 -0.014331371
-2.2003112 -0.1316809 0.48009682
-2.154358 2.4656625 0.5824145
1.3703 1.4579053 0.8256612
-1.0534654 4.0545626 1.5608606
0.73049796 3.6979012 0.104265764
-0.4169466 3.7908096 -0.5639336
0.05904892 13.46035 -0.5032582
-0.62506545 3.096644 -0.008421562
1.7395706 -1.0564563 1.3450899
-4.395796 7.7243814 0.68387604
-2.0452738 -2.0941148 1.369951
-1.4883792 6.0760536 -0.114292875
0.10033189 3.7759242 -0.4936285
1.442039 8.723194 0.24161747
-1.4260118 4.7681084 0.70444715
2.0884018 -1.3923965 0.56059027
1.2390649 6.6529865 1.1761878
-1.6180363 3.946375 0.36679906
-1.6948128 9.14896 1.0401182
1.5827582 9.925734 0.072239906
-0.5138854 8.149067 0.99181616
0.27032602 9.237589 1.168175
-3.8775473 7.2329826 -2.3629408
0.69746125 3.5385094 1.4889386
-1.1901801 9.584359 -0.108930826
2.152442 -2.2303147 0.6781305
0.5469204 2.5006227 0.15303093
-3.7613087 6.528469 -1.022428
-0.04346469 4.6843653 0.031003227
-1.1881006 10.1796055 1.3099451
0.13674733 7.648716 0.37514222
0.5492345 12.543896 0.2231715
0.5629406 7.220319 0.06982304
1.7807527 4.042075 0.79341066
-3.7751555 7.0677013 -2.0967774
1.287456 2.2889805 0.28358275
-0.8633156 13.000505 0.70235896
-1.3686383 10.161545 0.83064663
-3.4568362 6.2837486 -1.1153107
-1.4381967 2.2845063 1.2301512
-1.0202105 3.0629892 0.6646886
-0.31893563 11.40505 0.55759704
1.344893 6.2275934 1.0782449
-0.23480111 13.180391 -0.31266046
1.0680373 9.397152 -0.15275586
1.0390522 1.617763 0.9667245
0.9732423 5.053629 0.4078334
-1.397748 1.9168391 1.2649517
-0.60554254 3.4684243 1.0008667
0.9657874 4.635626 1.1082578
0.7853582 1.6476021 0.5566578
-1.7915256 3.0948353 0.75391674
0.8367821 5.3371954 0.6811594
1.0549986 10.701509 0.876727
-4.210513 7.255973 0.37749726
-2.1969128 2.0442767 0.5414717
-0.84384716 4.529787 0.93762684
-1.012723 7.7528048 0.4429475
1.098978 6.7603273 -0.1105672
-1.49862 4.48559 -0.2979377
0.59880614 9.483854 -0.22128564
1.3699772 7.6745434 1.1177137
1.656645 0.56396174 0.40045583
-0.50054824 5.410555 1.7843347
-1.8692026 -0.9067075 0.6255022
0.14144447 4.5200367 0.40856957
0.7055185 8.568693 0.19280273
0.3597579 8.799034 0.18535301
0.40047103 7.187455 1.431226
-0.35295576 5.990999 0.11797929
-0.41923916 9.543449 0.10303053
1.5165868 7.5929327 0.655064
0.58333635 2.7206316 0.95695424
0.395925 5.1674223 -0.119696334
-0.36327505 8.845076 -0.027965639
-1.3472023 2.7211103 0.018379528
1.1459019 6.531272 0.7993196
-0.7130251 5.694767 0.8514948
-1.1112778 5.956605 -0.15704903
0.24622166 7.3925085 1.7777269
0.5065206 9.218439 1.5596759
1.3151522 8.06859 1.2081149
0.8495717 9.791157 0.6472833
-0.1442498 12.196833 -0.6698934
1.6154048 0.35540468 -0.25979125
-1.0143452 8.489176 -0.28086752
0.37709522 9.632437 0.12619436
-4.0165176 6.8977184 -1.5241306
-1.8673329 9.80439 0.4043551
-0.34356827 9.918613 0.64135516
-0.6352167 7.8374844 -0.3002292
1.0388601 8.998903 -0.18156368
-0.19962686 12.492014 -0.11905037
-0.20972618 4.906209 1.1213088
0.01661639 7.236187 1.3624034
-0.30718148 4.505643 -0.6561364
-1.9160342 -4.6335497 1.4257455
-1.9215198 9.59268 0.07937865
-0.12814602 13.164928 0.91616285
-0.5716338 2.7446938 0.16096604
-1.1603503 4.272561 -0.093340755
-1.1264095 10.760942 0.33622605
-3.2052484 6.183508 -1.7905779
-1.6259389 3.687334 -0.25952363
-2.2775474 9.097586 0.5633149
1.5529404 9.736347 0.8530942
-0.7057562 7.052949 0.41624248
-1.3870618 2.5028148 0.4488327
0.5901902 3.2709475 0.22976631
0.23687744 2.7689886 0.94364977
0.8224677 6.115447 0.66989434
-0.8870375 4.0890017 0.14700916
-1.1312566 8.905279 0.559229
-0.84901536 13.010319 -0.35359275
-1.2944081 0.8817103 0.51504517
-1.0522084 5.035222 -0.07063258
1.6813006 4.6011896 0.15147287
-1.543442 0.26823902 -0.1562509
-3.7247162 6.8590546 -0.60481477
1.3648183 6.397457 0.45074064
-0.37696725 4.8186884 1.4618666
0.57293046 1.3823872 0.8017483
0.106840804 3.4855251 1.1801972
-1.0113416 7.6416883 -0.23709387
0.5493326 10.316309 0.90877223
-2.4904642 6.517911 -1.8590684
0.28786117 5.493614 0.12050071
0.7434882 10.940477 0.60054934
1.2404702 2.6408772 -0.44951767
2.0778422 -0.051065005 0.19827774
-0.9032488 0.93345547 0.6827817
-1.6154261 2.9031258 -0.2918253
1.7510552 -0.76391876 0.016432133
-3.3910089 8.94989 0.68338454
-0.79279864 12.278444 -0.46014577
-0.946674 8.121286 1.0782886
0.59114945 7.9783344 1.6079836
-0.8369261 2.6686168 -0.1724191
-0.48849767 1.7991321 0.37219274
-4.262912 8.002396 0.4937858
-2.163568 0.18881002 0.6721138
-2.4066944 6.787755 -1.503557
0.16660714 11.945805 0.34238672
0.8887888 9.410654 1.4487808
2.5781684 6.2319555 -0.2889799
-0.45833284 7.6859846 0.9274807
0.55959463 5.7676306 1.7004368
-0.87943506 13.290167 -0.10416733
0.024190784 7.211977 0.34226078
-0.9284922 3.0147114 1.3986828
0.23490477 2.5451512 -0.09684934
1.8808236 1.4843857 -0.07883209
-0.36097354 5.304756 -0.17169797
-1.4021575 7.8179617 -0.15115985
-1.7391655 -1.9370167 1.2375793
-3.359686 6.3578196 -2.4915733
2.0167575 9.175837 0.1883888
-0.2102834 5.8198414 -0.59494996
-3.38862 6.7219152 -1.2084899
0.74426246 3.9599543 0.45588923
1.3243842 5.305955 0.34212863
2.2194877 9.617739 0.84395546
3.0788603 -4.782262 1.6163077
1.8591981 -2.1567488 1.1415455
0.25705987 7.01379 1.8002365
0.5406349 8.825453 1.5724137
1.5283821 2.894575 -0.38973302
2.217133 -3.1270323 0.7834686
-1.7353222 1.554142 0.34619373
-4.303569 6.438615 -1.9556088
-1.2197914 7.3692217 1.3127124
-1.2784376 0.22172967 1.2254684
0.050209176 12.257315 0.82262206
-3.0223627 6.511162 -1.9723465
1.875675 9.563765 0.16526169
-1.087074 7.341202 0.911219
-0.20245495 11.818193 0.1686613
-1.2212198 0.24182376 0.14460322
-3.2654576 6.8802757 -1.7789304
2.8029666 6.6303253 0.60145986
1.2926321 1.8134086 -0.3624193
-3.2180943 8.513189 0.7549895
-1.4207346 8.696638 0.27901518
0.2830426 2.43861 0.7525765
0.5699731 6.2573786 1.3488319
-0.8846079 3.71071 1.5610962
0.18572685 8.417141 1.3636703
-1.0115132 1.7720587 0.6534054
2.0720282 0.71407366 0.28204417
1.0205476 6.869562 1.4967005
2.4663267 8.581259 0.8895376
-1.4125991 9.403576 1.2274251
0.6990707 10.692734 0.301844
-1.3012142 7.111452 0.6876972
-0.7602575 8.75359 0.7468015
-1.6189106 3.2041655 0.4226718
-1.1178677 6.924059 0.41180265
2.6320515 -4.0536976 0.23345026
0.4606204 7.013014 -0.36047122
2.252337 -1.0798583 0.67835546
-2.6651325 -4.2987976 0.6433046
-0.2821703 8.734272 0.7088896
-0.7498398 2.870192 0.92407095
-1.9819975 -3.957306 1.1927848
-2.0206733 8.935209 0.86244917
-0.74720633 2.7194986 1.3467865
2.1393118 -3.2659569 1.1265745
0.3166015 3.5796118 0.13350219
0.9000788 2.4335885 -0.40931052
1.6743443 1.3564923 1.1292512
0.56941235 9.432804 0.46155202
-0.26475483 4.4619436 0.34916228
-1.6441135 4.9956627 0.97140086
-1.2932346 0.9293313 0.8981955
2.729744 -4.632469 -0.13903081
-0.20847851 3.325272 0.62501967
0.42597443 3.7890825 -0.22950152
-3.0539746 7.6089516 -1.1138463
-1.7129884 -0.38921702 1.5266573
0.25675976 8.339708 0.2713487
-1.1329527 4.9042673 0.4071604
0.39898437 12.218521 0.22947013
-3.1658893 9.2705765 0.78356755
0.9927722 1.2958412 0.6918827
1.3849356 0.58791983 0.760386
0.85921705 10.472691 1.1458323
2.160502 -0.053066537 0.6181948
-3.8645916 6.4757576 -0.66567755
-0.5088098 4.091241 0.4611854
2.036295 2.2963963 0.27837282
-1.8028114 10.323467 0.9955807
0.25798565 6.0943136 0.33000636
0.8118907 5.529866 -0.4686597
0.8867823 4.8939943 0.76695466
-0.9960518 12.748842 0.43657672
0.8433093 6.801445 0.9236182
-0.35881364 9.198435 1.524235
-3.281479 5.974678 -0.92091525
-0.85006976 4.264436 0.5556768
1.6519489 -1.45369 1.2574966
0.14054877 6.6406736 1.029841
1.4760687 3.8770986 0.102743775
-1.4957998 9.6573925 0.4963235
-3.6367126 5.765744 -1.848608
-0.56661606 12.430523 -0.16865799
-1.6984549 0.6320517 -0.21023929
-0.73015726 8.898918 1.1599846
0.18547243 3.503686 0.81258774
0.20453173 8.224707 1.0239875
-3.895026 7.192772 -1.7248771
0.11176054 7.3088846 -0.40475643
0.43302977 3.6725411 0.44646996
-0.91991234 7.394969 0.065206945
1.9004495 9.816132 1.0559235
0.38668025 7.336055 0.3781526
-0.41834247 12.111258 -0.39558172
-1.1391373 2.8293953 0.99592304
-3.6847968 5.9070387 -1.0433676
-2.4864569 7.0835876 -1.1901603
0.8487854 4.7157087 -0.5411366
1.8066308 -0.8304863 0.95842946
-1.053046 3.667612 0.19605723
-1.0554111 5.254875 -0.37632126
-4.0305214 6.153475 -1.6875157
-0.28588486 3.9066086 0.6954496
-0.7852904 13.376513 0.23372689
0.6944361 9.015284 0.44257647
-1.8261607 -0.48092288 0.47628266
0.9802799 5.907407 1.0211165
-2.942039 5.8750315 -1.6767087
0.8765508 -0.30251926 0.45106262
1.3375094 9.077154 0.062210187
-1.2761877 3.7043023 0.4730258
0.0054843053 12.717905 0.5789131
-2.8348894 6.5747004 -1.3350551
-0.9763279 12.908567 0.032394625
0.29787707 11.973917 -0.06278308
-1.1493211 -0.121886715 0.7326329
0.7471907 5.2555065 -0.1544885
-2.3396873 -3.8843899 1.0909965
0.8302573 4.049021 0.8150474
1.1011529 5.294075 1.4554262
1.4970336 9.994104 1.1604006
-1.3311503 2.2928667 0.049937516
-1.9081118 1.5195367 -0.024782557
2.264433 -1.6720543 1.1701419
0.7831725 0.35735023 0.4852894
0.22201571 11.918129 -0.72508466
2.3625798 -3.638998 0.60458565
1.5663064 -0.062423863 -0.16758174
-0.23734364 8.011099 -0.35823756
1.8364551 -0.23534855 0.59508646
-1.0328658 2.0191426 -0.27831763
0.16515341 6.406731 1.440337
-1.4136794 5.6609926 -0.23697838
-0.92252016 9.312181 -0.18394688
-0.6590276 1.5252275 0.1773107
-3.7155929 7.5472603 -2.1169572
0.9047674 1.2203782 -0.1468179
1.6145282 5.0306664 0.11112024
-1.1635013 1.9070973 0.12540993
0.26616776 4.684539 1.8289332
2.4217348 5.6699047 -0.92133653
2.5140345 5.9638004 -0.6032628
2.523961 6.5495872 0.059523933
0.28930187 4.166257 -0.6123949
1.1519139 5.502473 -0.2629302
-0.74876165 10.779179 0.18386284
1.2053897 3.3004675 -0.1617603
-0.5920627 6.491767 -0.4460953
-2.9746146 6.9185047 -2.04945
-0.4717151 2.121478 0.11020376
-1.2860334 5.9869957 0.612607
1.8495331 0.684495 -0.07145928
1.4109926 2.0137448 1.1976662
-0.60893595 8.3962965 1.6622998
-1.1067874 5.0513563 1.5480604
-1.2697504 2.4325995 0.87688863
-1.6691158 7.296543 0.061909534
-1.5827293 4.893875 -0.1328066
0.8455111 2.2067723 0.06796029
-1.9321048 8.587145 0.8080964
1.251591 3.0179338 1.1099324
2.6278586 -4.575842 0.29114407
-0.52641296 9.451687 -0.24538156
0.5033903 9.639408 0.8194096
1.9952414 0.26004755 1.2034471
2.1830354 8.564707 1.316061
-1.5863185 6.4890294 0.30868608
-0.25904632 11.424259 0.120063946
-2.6149864 6.1374474 -1.7766445
-3.644508 8.666775 0.8763777
-0.83096755 1.6529715 0.973778
-0.15364385 6.512785 -0.22334945
-0.83110285 4.6910725 0.5650883
0.10526928 13.1225605 -0.6489967
-1.5098319 -0.37646264 0.8067223
-2.610176 6.310211 -1.1287236
-0.99437547 9.534367 1.0472991
-0.81819415 1.9636426 0.36439514
-1.1342137 0.91011417 -0.046740435
-3.4617648 6.5167885 -1.8005006
-1.349282 0.42731822 0.7974632
2.667129 7.977746 1.2482622
1.6926284 -0.8033049 0.46054333
0.8314607 6.098242 1.5757775
-0.2324493 11.430124 -0.54378116
-0.63616717 5.8513985 -0.16128832
-1.9200747 7.9004374 0.4812798
-0.80442524 4.8278246 0.16653267
-1.4116571 6.1686077 1.0979888
1.4298036 7.2852497 0.99189246
-2.1373272 1.2723887 1.0506403
-2.7164154 6.3273487 -2.147664
-0.5436194 13.141636 -0.0578119
-2.952392 7.0199766 -0.6774596
1.1929059 -0.46402693 0.28384006
1.2336125 5.62216 1.2723618
0.8337674 3.1516347 -0.17321002
-1.7663047 8.605022 0.45943213
-3.560769 8.467756 0.55785215
0.23228112 3.2943501 0.4440922
-1.7174926 9.32053 0.73131394
1.0676727 9.010969 0.64150476
0.41492558 6.5974436 -0.44635087
1.294477 10.373814 1.0597622
-1.1535833 -0.12879702 0.34373546
-2.3201013 -4.5873394 0.31717712
-0.89900964 6.5244856 1.5217597
1.553499 2.6516547 -0.0059951795
-0.49096358 4.663287 -0.33098328
1.5570705 0.7794025 -0.2790267
0.32588857 11.008624 0.7296411
1.6256225 1.610261 -0.30654103
1.4966116 -1.4194798 0.91989315
2.2881508 -4.316437 0.29236507
1.8767323 0.073516056 -0.09213725
0.6621572 4.530528 0.10486525
-2.8852363 7.3795815 -2.1781635
-0.43728435 8.006657 0.020283937
0.2095592 8.220692 1.7123723
-0.41740346 3.8434415 1.1201875
-0.9433812 2.2735362 0.06693515
1.7365873 0.79104567 0.8017024
0.6063813 7.5966396 1.6221972
1.7472713 4.8563213 0.43802845
1.4432211 2.3874612 1.0679874
-0.16980475 7.3421726 -0.083709136
-3.876235 6.498948 -1.6948032
-2.7199664 -4.224517 0.27591383
1.7777162 2.902103 0.7892029
-2.0050197 -4.3004665 1.5344214
-2.6283665 7.1410713 -2.0468283
-1.1841366 -0.6793691 0.8918127
-0.80913866 3.3471332 0.29637825
-1.4646466 -0.37722605 0.33029068
0.76309 6.6731567 1.2685924
-1.814497 4.97935 0.2069132
-3.9373684 6.838847 -1.1665494
0.92027545 2.5370069 0.2854591
-1.2382293 4.410077 1.0832872
-0.19324815 4.9790163 -0.32194602
-0.71332395 11.896679 -0.23662823
1.599448 3.2884436 0.4275325
-1.3260028 7.381709 -0.18732461
-0.7433342 1.2185915 0.42129487
-0.9955594 5.282646 0.26047677
-0.9005097 6.936819 0.77224946
2.6566072 7.73608 0.8664721
-0.23649278 5.323202 -0.59439576
0.110571295 9.392042 0.40017277
-3.5825295 6.184407 -0.73053014
-0.49947143 12.759897 -0.8353036
-1.3415103 1.5254014 0.1180172
-1.0182998 2.6288304 0.21424568
-0.53058815 5.6116242 -0.48435402
-4.683241 6.208948 -1.7392728
2.3260102 -2.8392105 1.0207992
-1.5893388 4.6043177 1.1412485
-1.9916806 1.897054 0.12945807
-0.61318433 12.341759 -0.84001565
-0.61701965 5.767088 1.7664156
-0.8460933 9.578444 0.17708245
-0.32045135 5.8629656 0.7699603
-0.051206335 6.801756 0.22185057
-1.2927241 9.186029 0.90538085
-1.5254679 2.510085 -0.30237317
1.9015214 -2.4429889 0.9056778
2.087286 -2.5231652 1.2096016
-4.5210056 6.4801874 -1.304292
0.8377539 3.9471245 -0.21545717
-0.94392836 6.169696 0.47764924
0.82085085 7.0973244 -0.19794875
-0.77599823 9.7441025 -0.15780243
-0.5078677 9.899563 1.3811395
0.5134144 4.0176764 0.12285513
-0.873119 6.2355404 -0.35332632
1.0094612 5.2598724 1.033359
0.79892623 10.185331 0.41886437
0.8730991 6.9620914 0.1746529
0.8765137 0.071013615 0.31892055
-3.0432472 7.6476536 -1.8587241
1.1727333 3.723113 -0.12839788
-1.0131824 8.077343 -0.22081241
0.5617999 2.2949295 -0.21817496
-0.66675067 11.13681 0.036212165
-1.4791522 5.429124 1.1206505
-0.6045786 8.243526 -0.31053656
0.25620276 9.633768 -0.22375512
0.1800394 12.73876 -0.7921021
-2.178825 -0.40735167 0.2156932
-0.09698829 4.273637 0.023382135
-3.877102 7.650963 -1.3293588
1.5652587 -0.14792904 0.919078
1.9984684 0.35997975 0.1294961
-0.05893933 3.8052678 1.29038
2.1812282 0.9801346 0.8164679
2.202775 1.137599 0.45851368
1.3384717 10.25193 0.11383924
-0.23621368 5.6933117 0.43288183
-0.5928339 8.640024 -0.33169192
-0.6559887 3.80053 0.80305564
-0.45597237 3.1491437 -0.4009921
-1.2221305 6.4695044 1.3439722
2.6108975 7.221594 0.61151373
-0.85021305 12.406559 0.55967486
-0.692878 13.301065 0.618208
-0.1480343 4.1222067 -0.59452057
0.5132766 2.670309 -0.35018414
1.133677 2.179244 0.9154291
1.3467946 5.118576 -0.20284557
3.0870414 -4.5824614 -0.19687659
-0.4777181 3.7318764 1.4877687
-1.0294726 3.5791116 1.1423521
1.2003801 4.2375603 1.3657806
-0.70924735 9.749924 0.52296627
0.36060178 6.9215193 0.31781203
0.50117743 8.658094 0.54031146
-1.2792356 3.7529697 1.454078
-0.76102567 2.0206895 1.1040072
0.36341906 7.3787575 1.0400336
0.8749223 9.527157 1.0467026
0.645264 5.6305504 0.9469372
-0.7177584 2.25671 -0.21610281
-0.68138707 9.556807 1.4679315
1.5205269 4.8642044 1.0501215
0.08643879 6.473583 -0.5713848
1.6477787 9.188585 1.1874828
1.0445712 3.5978832 1.3700643
-3.9528947 6.1482 -0.9330658
-2.0477371 -0.7299038 0.14210397
-2.2048264 -1.7057859 1.2775202
-0.19968551 6.492548 1.7053168
0.7618513 6.671418 -0.33789647
1.9038756 3.1289353 0.12511474
-1.8300016 3.8386536 0.7987081
0.89724267 8.353188 1.1659479
-1.4135659 10.436974 1.1181384
-2.1303115 -3.5481796 1.2573903
2.3103137 -1.9463816 0.8712319
-2.9944334 -4.5957737 -0.36680323
0.83725524 4.2824306 1.5783038
-1.9011302 2.701558 0.81786156
2.036621 2.2327223 0.68886566
-0.005593673 9.700094 0.7441677
0.48801893 6.5153856 1.0806832
0.8952422 8.585045 1.5165722
-1.8949959 4.211277 0.22962499
-1.1239481 8.801649 0.9598211
0.53587127 3.9238925 -0.6085187
1.555547 4.3908796 -0.16067636
-0.7430357 6.0962443 0.8105526
0.6642947 9.127403 -0.27870816
-0.42749536 3.195753 0.27763176
1.8636854 0.45980245 0.70453477
1.3977604 1.8387976 0.34561485
-3.2660227 7.5512657 -2.1817155
-0.52151334 4.50329 0.65502906
0.3188961 10.031736 0.24317935
1.7519176 4.1764193 0.084241346
1.1579074 7.6927767 -0.083026245
1.300889 1.3780599 -0.31732064
0.14371124 11.653141 0.01580017
-4.1126204 7.4328527 -1.139281
-2.9657168 -4.782263 1.6483846
-1.6878138 10.32493 0.5971283
0.50638163 9.96549 -0.10857023
2.308648 9.208841 0.9289551
2.1648993 -0.108395696 1.0478806
1.5530756 1.3919826 0.08594993
2.572751 8.153128 0.91051877
-1.938463 8.214981 0.71387386
-0.20343408 11.05673 0.078557566
-0.03414514 9.8915615 1.3893335
-1.1839914 8.249319 1.3994491
-0.1256725 6.091688 1.4458184
-2.6155195 9.727427 0.3052671
1.1189597 2.8566103 0.5224079
1.3705611 4.238205 0.20864081
1.2277203 1.2137165 1.0693853
-3.0659175 7.263356 -1.2349491
0.18188348 5.0089827 1.12715
-0.17635873 3.1412792 -0.13032657
-3.2437167 7.7476788 -1.4870033
-0.11238766 3.4486136 0.21594688
-0.1515955 13.274265 0.083540514
-1.1314454 4.4808054 -0.48268586
2.285252 -1.2247789 1.0674899
-0.744022 9.832819 0.9928622
-3.9296966 7.1925926 -0.78024054
-2.0120459 -4.2932673 1.07111
-0.588341 6.523219 1.7652116
-1.8881552 -1.0258546 1.0918622
1.534311 3.6648455 -0.32135862
-1.7386212 -1.7283895 0.9297018
2.0843492 -3.489891 0.7924751
-2.534494 9.353729 0.98428136
1.1762223 1.9866304 -0.004190849
0.06187607 7.0583534 0.992998
1.6501122 5.1183023 0.7722504
-2.9253793 9.51037 0.50280404
-0.46741688 4.1342793 0.080460444
2.6947193 -4.187392 0.91210485
1.0578456 4.255886 0.50841427
-0.06301941 7.550908 1.1200883
-1.6270876 3.062879 1.106693
2.0049438 2.63448 0.5473503
1.5065849 4.0955286 1.1194966
0.84122634 4.2625265 1.1679149
0.07267906 4.6160727 1.0483954
-4.0828094 6.802211 -0.7794224
2.3487325 5.1730185 -1.5429082
0.79070413 4.473177 0.7719904
-2.2403889 -0.4561507 1.1431837
-2.1680102 0.5829308 0.48914486
0.03472986 5.3450975 0.4628694
-0.4381522 6.892618 1.7664683
2.4931612 7.424094 0.9844266
2.5663743 -4.611387 -0.6641476
-0.6623663 4.993496 -0.20452845
-0.2910052 9.525047 0.5181842
-1.6511858 -0.7462213 0.1969567
-0.13592675 4.685667 1.826252
-3.0030203 8.709221 1.0246105
1.6102471 0.3457272 0.11194222
-2.6702008 -4.6090574 0.06466545
-2.5251436 -4.241991 1.049475
-2.8105955 6.7742243 -1.7065418
-1.5544441 3.5349488 0.17365214
-0.8915311 8.091621 1.510097
-0.59728396 12.287912 0.82699084
-1.372489 3.8948255 0.02901657
1.7826684 1.2792687 0.39874655
-3.0495892 6.6540794 -0.6231582
-2.886588 9.55234 0.877723
0.046682067 3.0790381 0.7481935
-3.9294763 7.8353033 0.6874169
-0.07416892 13.092991 0.44281346
-0.61392844 10.45467 0.004150633
1.9418771 1.9135602 -0.035049915
1.1167662 5.9509077 -0.13249892
-1.2647045 4.687052 -0.0071193976
-1.4381497 7.634761 1.0225544
-1.7280612 9.356607 0.33505332
0.64815676 5.3546104 0.24770474
-4.178149 7.037945 -2.1827917
0.51108384 8.61907 1.218313
0.83391047 3.309577 -0.55793035
-0.9518664 8.576332 0.39601195
0.21687338 13.011759 0.7819822
1.3694868 7.485223 0.24426004
-0.0827357 5.364312 1.1276238
0.2737869 7.58212 1.3895922
-0.040613472 4.8977966 0.4029826
-1.4105251 5.0573645 1.2913318
-0.8267126 5.8704824 1.2127817
0.9197322 0.7272265 0.7048756
2.1327415 8.309151 1.013907
0.32116604 4.527136 -0.2242882
0.96987164 3.2736716 1.2389574
1.6965954 2.0919385 0.23066625
-0.98646724 5.1530037 1.1690612
0.21856338 12.285873 -0.81840897
0.0908858 8.020575 0.642792
1.953938 3.057683 0.48178148
-1.1419404 2.0455651 0.9265976
0.48124737 3.1017551 -0.47450316
0.090345815 5.6578646 1.4836762
-0.27147043 11.697626 -0.18902329
2.6596413 6.3115005 0.3441679
1.1577532 6.000057 1.3528938
0.40521276 2.8393493 1.3049991
-0.6612954 8.944628 0.40768284
-0.29386473 10.217869 1.3130243
-1.3373373 9.288664 0.5711763
-3.662569 6.6794195 -2.157555
-0.1078365 8.656527 1.1574605
-1.2381346 10.785715 0.959592
-1.035316 5.3382764 0.6371604
0.9906057 9.130316 1.0487709
-0.7710706 10.450827 0.3984025
-0.45179522 4.809436 0.38108116
1.2828615 2.6909542 0.23286876
-1.581454 4.2383356 0.92584693
-0.16222098 6.56038 1.3087063
-4.307169 7.166663 -1.7815926
-1.4084766 -0.735165 0.4947961
1.5912488 5.691595 0.36529112
-3.5526237 7.2466135 -0.67183757
1.5907376 0.1405929 1.2404206
1.1651008 2.6271415 1.2618525
0.1995261 8.65497 1.6773127
2.300878 8.194832 0.69547045
-1.6933026 4.134679 -0.14385507
-1.3540509 4.6862173 1.4375196
-1.5440567 5.7923675 0.95371306
-2.9085598 7.6200714 -1.4947286
1.8569326 3.6915364 0.65553665
0.8238872 2.800477 0.71087694
-0.7856896 8.294899 0.052293494
-3.8731127 7.6414394 -1.7900057
0.67746115 3.120337 0.94718504
0.5341697 3.3449354 0.69880784
-2.032455 2.6698632 0.26021963
-2.0865297 8.738201 0.20663485
0.06102121 6.411256 0.6977062
1.6022458 1.1600196 0.764205
2.220573 9.409103 0.4690572
-2.5422487 8.893797 0.32224452
2.315229 -0.6948106 0.52912486
-0.4690448 12.815107 -0.3154348
0.38716137 12.486877 -0.52303064
-0.40399736 4.544677 1.0314088
1.2587233 9.2653675 1.3281083
-0.8396019 6.276412 1.1870995
0.18211186 7.086668 -0.038278677
-5.05577 6.6071835 -1.1050334
-0.28302157 12.085138 0.79662275
-0.19088537 7.2377586 1.6677163
1.3611109 7.0044994 0.20441893
-0.32079202 7.2624006 1.0081251
2.2020946 -2.1091623 1.1902764
-0.3432858 9.726549 1.0495183
1.437038 4.1055145 0.54617643
-1.0174007 4.146143 0.85222995
1.0475471 9.183973 0.26048893
-0.07049404 11.949083 -0.96888685
1.8140178 3.9446 0.3691491
-3.2525654 8.713858 0.4646771
-0.6500721 4.601575 1.3562112
-0.13227376 2.783153 0.07421906
-1.7681344 5.3746204 0.38666582
-0.25822163 13.599129 -0.29432526
0.5376277 4.688732 0.5183016
0.044535093 9.015022 0.10059835
0.3480451 12.340345 -0.1382626
-0.5849289 6.0212755 -0.51134086
-0.8176537 6.4864626 0.7578226
1.4581506 10.557343 0.76266193
0.22895455 7.930608 0.06746733
-0.08861073 5.4245872 1.811748
0.26477194 8.347445 0.64592326
0.5743015 3.9460292 1.6207979
-1.0381086 10.410242 0.0725652
-4.356102 7.475539 0.037119817
-2.9099784 6.023691 -2.0187478
2.1765203 -4.313429 1.4364583
-1.537729 5.7065525 0.14707983
-0.102258176 12.819765 0.9966682
-1.5695007 1.8451104 0.08399859
1.284632 4.8791857 0.18267295
-3.8399386 7.983362 1.0673888
2.314489 9.011509 0.57031333
-1.0818617 3.298315 -0.3817582
0.07302362 6.863652 0.6176292
-1.252528 0.65793335 1.2414372
1.1601472 0.5738454 0.43896765
-0.19462845 11.029045 -0.3158957
-0.59314835 3.18815 0.715276
0.85994625 6.531636 0.06803243
0.22099122 6.1984854 1.0871761
0.79863966 1.3739908 1.0826049
-0.66579807 7.230755 0.7983217
0.39632607 10.544695 1.1690977
1.3187077 6.044202 0.2774825
-1.7283661 8.107964 0.09870659
-0.62539506 9.33432 0.4475323
-2.0542994 -0.536932 1.4624727
2.8956914 7.0431957 0.47629166
0.55786836 4.2054577 -0.22180271
1.6367779 1.5911438 0.6055994
1.8950086 -1.203157 0.94766665
-4.1481695 7.468297 -1.572902
2.1536345 -2.6996331 0.7412243
0.1964837 13.466524 0.27258247
1.7652743 9.963343 0.6246855
-2.9010983 6.0982714 -0.98870313
0.020222358 5.1159506 0.04999368
-1.7890496 -0.41103113 0.023358535
-0.082776904 4.530924 -0.32187152
1.0207648 10.471191 0.21945304
-2.9068108 7.1715603 -1.6606164
-1.3243506 7.5862007 0.6387309
-0.6870637 10.124678 -0.10790339
-0.29990464 9.198908 0.20995519
-0.5376257 8.167345 0.350986
-2.7034965 6.056237 -1.3874516
2.3831477 -3.4827604 0.9614848
-0.8762747 6.618146 0.3990867
-0.87365985 3.7125354 -0.49841237
1.3639796 10.084164 0.76711583
1.2393754 8.867397 1.3247802
0.09835799 13.364864 0.6678239
-4.269206 6.642885 -1.6586063
0.41870952 8.49618 -0.0534164
1.0432999 8.7832775 0.28302902
0.9815891 5.508601 0.35468322
1.0182145 6.735177 0.47013128
1.3056238 0.22327274 0.41864908
-0.20293447 9.363365 0.92360854
-1.798904 2.1713657 -0.14600399
-2.2860065 9.849209 0.5834291
-2.0712085 -1.9179034 0.78574765
1.967685 9.225142 0.6476443
-0.14269796 6.2647333 1.0523698
-0.80359805 6.0839663 0.1056986
1.8540387 0.08631189 0.8825201
-0.5965462 1.5134168 0.6265731
0.11103083 7.7033224 -0.36303306
-4.4011984 5.9355526 -1.5199132
0.1868769 4.903857 -0.30991644
-1.9878421 3.4027743 0.5506953
1.5954242 -0.33669913 1.2914381
0.6103052 8.446684 0.8803843
-1.6410117 5.323558 0.0148112625
-3.8744574 7.2085123 -1.2823648
-0.5306107 6.711005 1.3842905
1.6947882 1.7206004 0.97969663
-2.0188203 2.268763 0.8765415
-2.0413346 0.8917649 1.1883397
-2.1189237 1.9322312 0.92363846
-1.1413424 7.7616177 1.4017634
1.3477671 1.8763604 0.8063991
-1.662749 -1.219749 1.4541817
1.123049 9.842934 0.9871489
-1.0038195 1.560493 0.3322575
-2.668971 -4.6149416 0.8985492
-0.46553832 6.048444 1.0908849
-0.25731993 2.483666 0.73074496
-0.16585383 4.505419 1.3423667
-0.7444055 8.712391 0.036204077
2.025083 -4.6162176 1.2353492
-1.459003 1.2594235 0.87759626
1.2179015 -0.11771019 0.17242652
-3.6555824 6.8581934 -1.7830842
2.0316029 -1.3656707 1.3240778
2.328765 -2.4118805 0.92714095
-1.6287315 3.5720983 0.5842228
1.4681973 10.59115 0.36821765
-4.0234222 6.7945576 -1.9294176
-0.5755017 9.345528 1.1549482
-4.9099417 6.561532 -0.81315947
0.2812389 5.4339504 1.1005359
-0.45555806 4.955518 0.745836
1.0523219 8.096678 0.51675534
-2.2197623 9.889952 0.16313729
-2.6762662 -4.3508205 -0.1993154
-3.3952975 5.817153 -1.25559
2.0914783 -4.2808323 0.643844
-0.81664157 3.0309682 -0.3215204
-1.6247249 1.5533311 1.1435313
-0.19672681 12.890141 -0.011469888
-1.6419115 -1.2493687 0.8794812
0.057760343 6.1786013 1.7921388
-2.5284524 8.940233 0.83249915
1.3680117 9.050329 0.8991028
1.2284539 9.702717 0.6386831
-1.8606529 1.0262156 -0.060005337
0.251994 5.204506 0.77713585
-0.2762891 5.1979713 1.4689808
-1.0981252 9.996008 -0.052029707
1.8119731 3.3695335 -0.13429067
0.882254 4.9757395 1.6235623
-1.5455053 7.292053 0.9160851
-4.157199 7.6589184 0.34071827
1.9774301 -1.6011987 0.9533434
-0.3293333 10.63368 0.250946
-0.64920104 3.4325552 -0.4995411
-0.14177555 11.026329 0.74538887
0.30900246 5.8031044 1.0605156
0.6082163 10.209429 1.3306184
0.8102038 8.0903 0.8635272
-0.10387817 12.809542 -0.4650452
-0.05660999 4.1241302 0.40928298
1.3525622 0.6781571 0.10868916
-0.39164823 4.3858795 1.6456084
1.6795816 5.285878 0.43044376
0.8786274 4.4538774 -0.22510317
-0.40799767 12.095823 -0.0011645914
-0.5906788 8.372002 0.6809014
-2.923202 8.635546 0.32519478
0.18535513 10.301804 -0.022974882
-0.83258235 12.1707325 -0.02744224
0.14209905 10.968508 -0.021749996
1.920701 -1.7960782 1.2717166
-1.0711708 8.892496 0.12534717
-1.2352307 7.132305 0.10314526
-1.2408309 8.051094 0.7006508
-0.31535363 13.345734 0.6804825
-0.561476 7.9926205 1.6856542
-0.4572013 11.273848 -0.24828213
0.029033441 6.292569 0.091700554
-0.3488418 5.4118667 0.7439611
0.17009228 10.236887 1.2784691
0.35846996 10.6531105 0.6289116
1.1148319 3.8454056 0.26340562
0.23452386 6.5926294 1.8388771
-0.26331377 10.286625 -0.07348646
-3.3842936 7.524581 -0.88829803
-0.1983242 6.5557575 0.4680496
1.4117653 3.0558228 0.70095
-0.5383203 8.57287 0.3749057
-1.5812614 6.882634 0.8388224
-1.0347865 1.8006423 1.2816472
0.03591484 2.7318573 0.5605562
-0.07742286 10.648251 -0.05486171
-1.9302194 -1.4367392 1.1069388
-2.6338801 6.7170925 -2.1817222
-0.20711789 5.807189 1.7582376
-0.59627306 4.1771345 0.89562476
0.8348979 3.546503 -0.24975246
2.2917843 4.5889206 -1.9761007
-1.8360162 10.669643 0.48290092
0.3212275 4.7771406 0.1263215
-1.7984412 -0.66799366 1.1810336
1.7329998 10.2516365 0.9327216
-2.6745315 7.4157925 -1.3326535
0.94996274 10.180504 0.832939
-0.33518058 10.797358 0.9863448
2.2096758 8.4980545 0.26871705
0.6795291 4.950238 0.17725334
1.3909051 4.545725 0.44074243
0.8878664 4.2002783 0.14209315
0.3817262 7.616678 0.67962
-2.1051831 9.164862 0.16284776
2.0026941 9.403749 1.1311057
0.88306093 7.442908 0.17251015
0.8660836 7.949421 -0.25801325
0.03963448 11.215324 0.46180552
-1.7508874 3.4611201 0.95831025
-2.8674283 -4.604702 0.46854937
0.81995416 3.5778484 0.5081835
0.27602458 2.8637724 0.23466668
-0.78523004 7.5849752 0.7224252
0.35726947 12.405275 0.56809324
1.0275033 0.0046554795 0.6605377
1.6250503 2.8663287 0.37420797
0.15014142 6.0611897 -0.59836483
-2.4469247 6.8867064 -1.8709366
-1.3631756 8.310049 0.3224979
-2.2519903 -3.6660318 0.7442988
-1.6206162 9.348795 -0.026218746
0.5419054 3.7540646 0.8067051
-3.639081 6.1175346 -1.7932825
-1.2936869 3.0493197 1.2744586
0.9149016 3.5350018 0.91701305
-1.4352448 -1.0364425 1.1633887
-0.47564787 9.892807 0.21639106
0.35256565 3.249559 1.4387345
-0.77022433 7.462016 1.1574736
-3.0352554 5.8430557 -1.2832577
1.6888869 -0.46062744 0.336999
1.5033345 -0.41864997 -0.014741021
0.7275746 8.927538 0.0457301
-1.4716506 4.3113403 0.14300823
1.1890662 3.4340491 0.4968065
2.5299544 5.894718 -0.26868004
-1.7180557 1.788249 -0.23807248
-1.4858794 3.1010294 0.057965726
0.28825545 5.982362 1.4454889
-2.1666212 -3.245525 0.9302522
1.2944436 2.2206817 -0.4187799
-2.6060653 8.507589 0.31558836
1.2701857 1.1110425 0.061048195
-0.1721963 6.0673895 -0.24393162
2.517096 7.03876 1.0425467
-0.25472635 6.2696686 -0.55978596
0.2873125 4.3248863 0.13014647
1.6725926 9.244562 0.27229905
-1.555623 6.496438 0.7637126
-0.09865868 5.49333 0.10086779
-1.8495011 3.8198304 0.030026626
-0.9216348 13.101034 0.33656776
-0.6129416 4.1053915 -0.5931096
0.5486289 6.2291794 -0.47932094
-3.0308022 -4.574724 0.062123984
0.6988164 9.930655 1.0484836
1.0593784 3.1607442 0.83237374
-1.8286631 -2.4358492 1.2230036
-1.1931071 3.9710007 1.1354408
1.81584 9.019518 0.8904326
-2.2637796 10.494843 0.44666225
-0.93208694 9.831457 1.4159496
-0.31717294 6.4417305 0.11343755
-1.992877 8.309632 0.29668945
-1.0443635 8.927919 1.4746561
1.154427 8.679474 0.94253075
-3.2897549 7.0541325 -0.9680128
0.3997833 7.9648924 0.40289098
0.3326102 2.1428294 0.4780227
-1.5414226 -1.4797814 1.2020581
-1.1271505 10.26075 0.45451313
0.61863005 9.243015 0.82958126
1.6062977 9.575207 1.2096047
-2.220965 -0.87856114 1.2949188
2.3572106 -4.628067 0.07875398
-0.8798729 12.622236 -0.20607513
-3.6467094 6.600872 -1.4253349
1.8815594 0.92729306 0.5228474
0.06453921 10.069109 0.59139025
1.1863992 3.0919404 -0.5187049
2.8530984 7.186471 1.1637208
-0.22253278 4.073661 1.4997175
0.09037794 3.934083 0.85158205
-0.11951676 10.084389 0.23105168
1.217885 3.9593253 -0.5103737
0.44291455 5.8914757 0.6626761
1.6375866 8.701839 0.7022582
1.4341972 9.482872 0.045921057
0.09106563 5.060977 1.8626668
-0.6129987 11.805958 0.17439717
2.3672466 4.732218 -1.5426004
-0.7406403 1.8809068 -0.028319873
1.4176974 3.8616867 0.83838034
-1.6666121 5.750746 0.5434679
1.8110723 3.3396811 0.73401845
0.33907652 8.865519 -0.26678067
2.3841505 8.605667 0.54252934
-0.09672733 8.850466 -0.31502008
-1.8227246 10.038614 0.11903818
1.6690028 2.4472275 0.37231195
-1.6072466 8.330416 0.96055126
-4.7069197 6.118453 -1.323545
-1.4994142 4.7258253 0.32325906
-0.7441511 12.126873 0.38859046
-2.1091285 10.501432 0.76990116
0.99885726 6.3337517 0.37951738
2.1441016 -4.6622686 1.5671926
-1.3672521 8.547363 0.66903675
0.85175323 7.91144 0.15910944
0.48355728 4.1365433 0.8917346
1.834449 2.8738708 -0.181983
1.0340843 2.4108286 0.59587586
-0.29279578 5.5696964 1.4495509
0.08295347 4.3926687 1.5934563
-1.3444977 9.026953 1.274322
2.2527933 -0.8027381 0.94434035
1.8917124 -0.36801624 -0.020250794
0.6233336 9.085892 1.2063686
-2.3181825 -3.950729 0.4171728
-0.23875535 3.4923048 -0.40008587
-0.65847147 7.403761 -0.35933816
-3.807293 6.3604107 -2.4214826
-2.3856988 -4.2231455 1.441082
-0.2655133 3.8151574 0.218297
2.1341949 -3.703947 1.1318791
-2.1989665 -2.451045 1.2275262
0.07691009 6.879941 -0.4093907
-0.48085898 6.3153257 1.4099853
0.3449939 12.866791 -0.47822255
1.0782619 7.6579323 0.4272262
1.8654802 -0.4012555 0.9856434
0.50567675 9.540121 1.1855309
0.44854707 12.791485 0.55769706
-3.1941094 6.8142014 -2.5420327
-1.554873 -0.79113424 1.469737
0.377007 9.893465 1.4170194
1.954473 2.7115297 0.16473088
0.94052076 9.387243 0.6410552
-3.5120153 7.352912 -2.3549943
-0.8990998 4.2724495 1.2491338
-0.42860842 3.4924202 -0.04707112
1.6745592 4.7051926 0.749994
2.0367723 5.2773685 -1.8129582
-0.78814876 4.3730946 1.6563973
-0.9457778 1.5902112 -0.13155866
0.6154425 5.101325 -0.5404341
-1.2752395 2.9117246 0.40738392
-0.26176828 9.561289 1.4219501
1.1756229 4.1290026 -0.11571422
-0.37805897 6.278821 0.72425437
-2.087422 0.8706299 0.75664246
-4.7964816 7.105587 -0.40581208
-1.4119906 1.3980539 0.5205109
-0.19588313 12.988281 -0.81780446
-1.546057 6.829546 0.44320232
-3.7671905 7.5025525 -0.95501006
-0.6134294 3.8552837 -0.21034414
-0.79155135 2.9389815 0.40171343
-1.1995839 5.873993 0.23232806
-0.9662721 3.2207112 1.0348077
-1.7020794 5.3796864 0.78182375
1.4313438 2.6337323 0.65463984
-0.5336596 7.788025 0.42470998
1.3828752 8.324408 0.56616604
2.4387846 7.6980124 1.2942121
-1.8046584 -0.06287074 0.3449207
0.7166202 8.700785 -0.29555994
2.4416203 -3.89578 0.9950458
-1.9960432 1.6130826 1.1007762
1.2432897 0.5725635 -0.22068807
-0.020914309 11.60568 0.42394644
0.8419795 5.006336 1.2386894
0.19062626 6.2370415 -0.25558823
-1.5383263 6.4898205 -0.055853777
-1.432095 4.1717815 1.3180571
0.7411591 7.8095503 0.5441508
0.823177 5.741601 0.62541866
-3.5550003 7.0147667 -1.4520025
-2.261487 -0.4251876 0.73019314
0.45970464 4.326002 1.7108574
-1.0200603 3.8548174 -0.15297812
-2.7891922 7.2800074 -0.959533
0.16184819 12.702404 -0.1489552
0.17924646 11.304895 0.11854973
1.4774668 6.866872 0.9067861
2.0361485 8.52656 0.645239
-1.5977757 6.1407566 0.6919875
2.1051683 -0.9376676 1.2766469
-4.0167885 5.8439083 -1.3368654
-1.527596 6.109811 0.29447556
-0.72944367 5.095086 0.5208155
-2.776452 6.9721003 -1.3305857
1.2045691 4.606127 0.772401
-0.18884635 12.4520855 0.9563526
1.671874 1.1500592 -0.23956794
-4.317892 7.183449 -1.3585873
0.5250604 2.9360251 -0.059267044
-0.73263156 5.2935505 0.88966966
0.6456511 1.7313702 1.0461397
2.8349423 6.705146 0.20898199
2.0794563 10.042522 0.7979007
-1.8704839 2.9071722 -0.03648588
1.2048068 6.3316383 -0.015804026
-1.4151795 7.270879 0.37125003
-4.120761 7.742378 1.012377
-1.5862377 8.746336 1.0195227
1.4783735 -0.7204883 1.2211287
-0.6266855 10.482306 0.82345116
0.8182014 5.9245853 -0.411869
1.8913176 3.520831 0.29191464
-1.8914161 4.2050333 0.61682177
1.8145146 3.7671409 -0.029841669
-1.7774851 1.5359273 0.7454493
0.7903898 2.3889241 0.9060203
1.7790666 1.680659 0.29333973
0.47226238 5.025545 1.7743347
-0.12464638 7.775593 -0.053321347
-0.86898375 1.219419 0.0066395747
0.47879124 3.5337338 -0.57872295
0.17159942 11.697023 -0.38957167
1.4082143 7.87646 0.48506576
-0.54828954 13.051495 0.94682467
-1.8520811 -0.1283769 0.728842
0.49017465 2.1159887 0.86239445
0.6112673 6.199956 0.33674204
-0.49450397 11.68078 -0.8216071
-0.37422538 4.245929 -0.30501872
-1.4850917 2.1167874 0.7267345
0.13719311 4.508498 -0.6404871
-1.5003178 2.7019672 1.1932614
0.5616585 5.7750645 0.2641806
1.2546942 7.934659 0.17488794
0.7611952 7.21867 0.89116526
-0.17373618 8.843338 1.5330458
0.83606017 7.5318108 -0.2054708
-0.17412841 12.294163 -1.06686
-2.194963 -0.7135602 0.50006056
-0.4519109 5.215021 1.1200192
-2.4693427 6.4008856 -1.4829464
-3.1120605 6.1590567 -2.3005347
0.9299625 1.3520706 0.2779401
0.25263515 6.8067417 1.3893249
-4.4470387 7.076047 0.12875655
-2.0652032 -0.11608955 1.3782694
0.15845701 2.9253426 -0.26010287
-0.5293492 4.2174864 1.2932811
0.8650489 1.0286186 1.0174181
2.4208717 -4.261814 0.7229731
2.009706 -2.8804626 1.0879252
0.2872941 3.1449242 1.0499959
1.2058859 3.5250468 -0.52055514
-0.22225863 8.438305 -0.3131423
-0.8396828 2.215485 0.6888164
-2.1103268 1.2515066 0.61583805
0.49574643 3.3806262 -0.16890499
-0.59684074 11.066975 0.7374953
-2.1043735 -2.4225345 0.86384153
0.9626126 0.43686682 0.12149024
-3.4896173 7.7181797 -1.19327
-0.6352154 6.9734764 -0.4140895
-1.2589109 6.895631 -0.16987818
1.1643512 2.4351807 -0.09108207
0.18974143 8.610556 0.9190339
-1.0589712 7.7393026 0.96557283
-1.7867587 -0.045122713 -0.08433136
-1.1934452 5.4232492 1.4121616
-0.20853037 9.2108555 -0.24170595
1.9703584 -0.6347194 0.6495031
-0.48652261 9.082144 0.78455555
-1.3057096 5.786315 1.2816172
1.5297561 -1.0763962 0.73402846
2.162674 -0.49600774 1.1971853
-0.5349213 6.713161 -0.13862303
-2.7153506 9.194656 0.65831745
1.0743577 2.0296469 0.46484083
-2.0318942 10.144062 0.5652808
-1.1835294 6.2682104 0.16208711
0.035143144 12.423092 -0.43416262
-0.1505849 8.37899 0.41182482
0.19526511 3.1981297 0.030640997
1.1672554 10.36989 0.57178617
2.4679718 6.5227766 0.4966389
1.3809431 1.6341548 1.2024014
1.3131886 -0.3820988 1.0643787
-1.154001 6.417094 -0.16420147
-1.4096062 3.9845328 0.73010564
1.3231385 -0.7141688 0.5557848
-2.045885 2.263382 0.208285
-1.6730187 0.33662063 0.21483094
-0.5134262 7.121582 1.3722093
-0.7984954 6.136074 1.6215951
-4.1324215 6.6272135 -2.2616715
1.8357165 -2.0057745 0.7969245
-2.2535138 -1.6047804 0.90348566
1.5245132 7.9971075 0.8230473
-0.31714082 5.225647 0.37438202
0.43291652 5.418886 -0.5525514
1.1563456 1.6389933 0.52665055
-0.20491654 3.6051035 0.9038341
0.18513647 6.6601095 -0.07586087
1.6295927 2.4848332 -0.35290152
0.5672574 8.27331 -0.3206097
0.45751965 6.949251 1.0752923
0.07029791 5.365589 -0.28629488
0.1621513 7.9695463 1.3607035
-1.1664927 6.905216 1.4099011
-3.2686467 6.655319 -2.1941438
-2.110557 9.306721 0.9298574
1.479506 0.21799636 0.7788894
1.9750371 1.0883467 0.071411476
-0.20338047 3.8843079 -0.19350892
1.095706 -0.39859998 0.75171757
-1.3191535 1.7040644 -0.24743924
-3.5654163 8.173834 0.7980516
-0.99083877 10.546608 1.1885042
-2.5802398 9.26984 0.29355973
-2.5909772 9.852835 0.89931774
0.34405035 2.1574297 0.08720262
-0.41297996 7.4787626 1.3525977
-1.6668477 2.5035372 0.13605124
-0.9289706 5.6760893 -0.34018183
-2.043971 -3.1615744 1.2374666
0.058895826 6.00778 0.7532666
0.7039317 0.70459676 0.3283463
-2.4792366 9.512514 0.63645685
-3.1325822 7.338669 -0.7516049
-4.907853 6.8773546 -0.7239919
2.2954054 4.996846 -1.8994553
-1.181726 1.1590803 0.27924794
-1.0805795 1.3209865 0.68181825
-3.5968251 6.0256557 -2.2572083
-1.4109182 10.187764 0.0985291
1.8887753 2.3675961 -0.08826259
0.54137874 3.4750428 1.1193123
0.54304326 6.7951126 -0.01707527
-1.4617126 0.050766595 0.5355629
0.4272306 6.175785 1.7812681
-1.8045993 1.115963 0.8922751
1.4987912 0.87974334 1.0667775
-0.10431947 10.051903 0.9953637
0.3164881 3.845303 1.155807
-0.5365882 6.900922 1.0074918
-1.4371145 5.149135 0.5382682
2.8355813 6.918208 0.8684646
-1.2771816 3.6817708 -0.42465192
-4.9135427 6.453884 -1.4488301
-4.1977673 6.4634066 -0.95142794
