0.5189803 1.1196209 0.28200403
-1.8241538 1.0314556 1.2383927
2.0311813 8.357178 0.90048575
-0.111128904 9.516834 -0.08808121
1.0266072 7.1944222 0.5321634
-0.046469703 7.288108 1.5955627
2.0317376 -0.38392255 0.49819264
2.1999104 -1.632927 0.6989429
1.3764375 2.8734405 -0.066020384
-2.5628989 9.608783 0.7247189
-1.375552 9.919169 0.1999031
-0.8138848 7.2969217 1.6437405
-0.7696938 3.8420398 1.1960273
-2.2623932 0.6360139 0.39501464
-0.027903926 12.475138 0.7389495
-0.087300085 9.690056 0.27642998
-1.2967904 7.9066896 -2.7874765
-1.4368078 0.48772934 0.8964031
-0.2786726 6.6775537 -0.56743455
-0.6180242 2.69205 -0.22271581
-1.729794 0.3712442 1.097343
0.2273078 7.528094 -0.008309996
-0.74871176 10.268082 0.8369532
-2.1604464 1.1928273 1.2287352
-2.4384272 7.683361 0.3174464
0.9834521 7.0085683 1.2152121
-0.5029426 11.785999 0.66202354
0.5846338 5.303516 1.6829153
-0.3766938 3.1106572 0.2916231
0.6678184 7.2563195 -2.6821847
-0.338729 2.7069607 0.047559947
1.9030107 1.3539102 0.18266533
0.3316088 1.9081346 0.1893387
2.364666 9.087411 0.8555445
-0.30291268 4.907523 -0.6829342
1.7502254 2.0277243 0.9420735
0.033045534 7.492861 -2.6181302
-2.5193822 7.6513586 -0.36955813
-1.5944219 7.5636435 0.4087498
-0.75114435 12.060739 -0.3019796
-1.0666822 10.589244 0.90759087
-1.2831542 -0.20188464 1.0539101
1.9652505 7.15237 -0.65657306
1.5044342 0.7118746 1.12383
-0.58851594 7.263278 0.6179032
0.884984 7.1439395 -0.21035314
0.192514 5.337614 1.6357536
0.58884937 7.7610846 0.05023595
-0.048575185 4.7406855 1.4177425
-2.0988183 1.0226938 0.16889605
-0.93751645 2.3218703 1.3120731
-2.0254593 -0.59924066 0.92045754
-0.7710564 3.5572798 0.89971435
-0.42265874 8.004172 0.77579814
-0.48012766 8.38895 1.033865
-1.7751646 10.577034 1.0961761
0.17454305 7.5027714 -3.291665
0.09662099 8.981115 0.90113163
1.9804362 -2.7869968 0.9075885
0.7180788 3.8202167 1.1488471
0.67891014 6.1684237 0.07348991
-2.0233712 3.5323029 0.12325445
-2.5820377 7.160481 -0.43457118
-1.8149921 1.5067325 0.5153609
0.7559584 8.888537 0.92769486
0.7913912 5.638353 1.6545461
1.4108174 -0.17210084 1.3077381
-1.0552251 3.2012112 0.19804727
-1.3969374 6.626849 1.3169667
-1.9689598 10.356957 0.46958885
-1.3817929 7.3063107 -3.2750049
-0.066111185 9.641375 1.2035819
-0.74723786 12.833036 -0.25900692
-1.6829667 0.9022655 0.16702098
-1.037481 6.479132 1.0838695
0.048187964 5.7332454 1.6498235
1.0147635 7.3652353 1.3688427
1.3328571 0.13602856 0.75133115
-0.19806243 11.642553 -0.6646245
0.030048817 3.5265484 -0.20416413
-0.23479542 6.1483727 0.3793277
0.26076892 7.24193 0.5781503
1.2279713 5.3814955 0.45505032
-2.0787504 8.558838 0.8015258
-0.5334788 13.138382 -0.436478
-1.4276284 5.692897 0.38542017
0.8666299 3.0073013 0.12293813
1.3260218 2.6488867 1.1439949
-0.74172497 7.716972 0.17006217
0.41440502 13.382288 0.030480323
0.06869438 8.33323 1.5895495
-1.5417562 3.3783615 1.2417655
1.2869539 9.803122 0.18797885
1.8153702 -0.44143996 0.1672914
-1.074064 7.2366714 -0.2999877
-0.64751816 11.370419 0.4859903
-1.8452853 9.433887 0.85814345
-2.6413496 8.914567 0.6274773
0.170391 7.295012 -0.40871283
1.1187648 7.814776 1.291641
-0.38953453 7.4108934 0.27360657
-0.53718245 4.820363 1.0563903
1.0249689 5.247077 -0.3329508
-1.4396275 2.5851688 0.40613967
-0.9582795 12.779466 0.6003233
-1.3391025 4.464744 -0.446287
1.2332658 3.0932107 0.19732395
0.35340345 1.7947977 0.60804594
1.1217206 7.6141057 0.66564494
-2.089717 7.3357544 -0.91482115
2.3847568 -3.9548686 0.2711827
-1.7588111 7.0404215 0.81882334
2.7053196 7.1275353 0.30619594
-0.7843592 1.3330711 0.84433585
-2.5510323 -4.6160293 1.1040164
1.1536101 6.3522606 1.0599575
-1.6344365 -0.39617455 0.86433405
-0.60794896 12.718837 0.70797426
0.97873306 2.6011224 0.9504693
-2.69956 7.1338563 -0.039103396
-1.5247356 8.669201 1.2598804
0.6954598 9.761486 0.48931694
-2.134878 9.990396 0.36819747
-0.122309774 9.497495 1.5624638
-0.604291 8.250959 1.3921615
-2.448514 -3.8674817 0.87667286
-1.4901339 6.3675323 1.0527803
1.5203229 5.3196282 0.8450329
0.2515447 10.736686 0.6689523
-1.099654 3.4311743 -0.14371182
0.5156378 2.4906666 0.6004463
-1.6490116 -1.3824279 1.4228635
-0.32371745 13.540643 -0.35149497
2.0144076 10.223081 0.44188628
-1.0396048 5.8403025 0.43276238
1.0310236 0.74550104 1.1451046
0.17064416 4.8477855 0.69811773
-2.2562304 7.0967526 -0.6662484
1.2891935 0.88628894 0.08047251
-0.126549 8.81198 0.5548573
-2.0844626 -3.3729753 1.2333585
0.24070801 2.4846215 1.032191
-1.0084121 8.9999075 1.2758423
0.019776668 3.876865 0.062125333
-0.777933 5.3344154 -0.51493114
-1.794704 9.894156 1.345151
-0.24221109 8.110917 1.2309834
-0.871778 4.3337 -0.060843363
0.17360319 12.760264 0.48525473
2.7028668 7.4652157 0.05851731
-2.2750797 -0.023332316 0.23556742
0.83288276 8.024897 1.6467136
0.71019924 2.7190719 0.31079373
0.5143071 5.498597 0.54820234
-0.43301532 3.404879 1.2258801
0.31799537 8.410885 -3.5287142
-0.6494296 5.812384 1.427447
0.6176049 6.5759535 0.5777682
-0.35793602 7.7978454 0.29896763
-1.9011191 4.8029304 0.53145766
2.2033658 8.017825 0.6926142
1.7580892 8.917692 0.7885948
1.1875877 3.626494 1.26769
-0.110304326 12.232865 -0.37744445
-1.832197 9.819468 1.0009941
-0.091864936 5.4543886 1.0017233
0.98498356 1.6905421 0.07691428
-0.31044647 2.9123328 0.70296437
-1.0733523 0.66663533 0.88831323
1.7663064 3.7166212 0.7574477
1.4000101 7.0909305 0.64569104
-0.7758093 7.222807 -3.5080702
-0.024800623 7.051131 -2.8445046
0.88427705 7.828058 -3.3626175
1.8405569 1.4481534 0.8531569
1.4771367 8.17611 0.42766777
-0.37313473 3.526227 0.29353887
-0.8920992 9.329124 -0.122667596
0.79048085 7.2038207 1.6457472
-0.20399168 12.053928 0.6549484
0.13789138 12.403399 0.36534208
0.7195895 5.625678 1.2852223
-2.021141 -1.1902074 1.5396081
-0.36294022 6.582561 0.90380853
-0.2950567 8.175314 0.33659238
-0.6080384 7.3409405 -2.779471
-1.1276959 8.803734 1.5915006
0.039815847 5.832742 0.27517325
-0.66338205 9.226649 0.9526901
-1.59265 8.078958 0.20207022
-1.5987408 0.75893563 1.2100059
-1.9044268 4.767049 0.15649812
0.16045363 8.5657835 0.685164
0.5543089 12.780394 0.26401517
-0.8778437 6.9324884 -3.704128
-0.81203103 5.487203 -0.13377924
-2.050721 1.5932335 1.1621195
-1.7407453 3.238834 0.26673016
1.0582658 4.8724523 1.3882973
0.24259993 10.332693 0.6629999
1.6582311 10.465879 0.9376213
-2.8524225 7.452532 0.20997499
-0.9413692 4.9103994 0.8800729
0.99331117 10.066275 0.27120376
-2.321936 -0.69918406 0.58685124
1.2404175 6.9248776 0.2900907
0.99540895 10.823318 0.7765896
0.5980577 8.225382 0.44263864
1.2168901 3.2691448 1.1854615
1.4812506 3.0499198 1.052652
0.0377858 8.369646 1.0797166
-0.14466941 7.671068 -4.2352304
-2.2885532 2.0125518 0.64049697
-2.760734 -4.544802 -0.7388684
-0.7189496 8.898555 1.6731217
2.260929 -4.610713 0.70147544
0.8204883 10.08571 1.4971315
-2.099887 3.8037014 0.4359374
-0.24425438 13.1379595 1.2201813
0.878394 0.19255821 0.80401623
-1.9784486 -4.1709857 1.1004949
1.3988286 4.7359686 -0.19166808
-2.6595378 7.4574623 -0.60712373
-2.17115 1.825294 0.30323735
-1.3437787 3.0252974 0.84134007
0.4916121 4.584913 1.7097985
-0.7983926 3.400386 1.3505669
-2.2823443 0.104248926 0.72778875
-0.28464437 8.357803 1.6191096
2.1526556 8.715925 0.6222506
0.7337275 5.0284157 -0.5397772
-1.2466725 6.7016473 0.807532
-0.10887839 13.766599 0.37021074
1.1793346 4.275425 0.75334764
-0.021835249 5.531198 -0.6854223
-1.3062838 2.6134691 0.91209716
1.1429372 4.9124327 0.90538573
1.3587108 10.257666 0.7605018
-0.7564012 5.568243 0.28070512
0.94483566 8.717657 1.2402645
-1.6473329 8.49797 0.25661942
-1.00664 8.276851 1.1890658
-0.42805815 2.2620125 0.393865
-1.2056817 5.646976 0.043674413
0.4109404 2.8723485 0.6133854
-0.53960556 6.5262265 0.21043329
1.488747 8.955237 0.54245394
0.18900524 3.579919 1.4677837
0.54832375 9.985517 0.8422467
-0.15646738 7.248813 0.6371057
-0.016976196 7.902261 0.9600914
-2.0015051 -0.73473734 1.6033217
-1.2472185 0.37441164 0.26956433
0.17373261 11.696258 -0.034041353
-1.0634094 3.648596 0.65099126
1.2214829 7.293321 -2.2605536
-0.09074128 7.8666673 -2.6428134
0.18583457 9.908722 1.1341214
-1.4940685 5.4121046 -0.21322264
1.3901892 9.853014 0.5530208
0.44571343 5.9294353 0.9919482
0.5533421 5.251719 1.3124672
-1.1643016 10.253332 1.1455938
1.3802788 -0.79817635 0.2428431
-2.0924697 -4.5656643 0.8923222
-0.35352656 12.826857 0.9477735
-1.1342248 6.775791 -0.26722872
0.04102274 5.08987 -0.68446136
0.67014205 1.0574756 0.70385146
-0.055773627 8.371677 0.02845322
-1.5215436 2.270703 -0.29553157
1.308402 4.966319 0.5431126
0.17074288 6.5600386 0.52747995
0.11563725 9.057364 0.50212586
0.62015885 5.848871 -0.12195255
1.665209 1.9138818 0.39888656
-1.4124931 7.201756 -2.8839216
1.7740899 1.0710422 1.079677
1.2538507 7.607024 -2.2052097
0.13983768 4.2267027 1.1042615
0.4264913 9.004513 0.23147477
0.8452998 -0.7312326 0.6280843
0.41398263 13.299407 0.77048177
2.1170745 -3.5347428 1.1296276
-0.56918097 2.4187713 1.0477012
0.49215758 7.0464344 1.2801578
2.16192 7.192367 -1.0075494
-0.34251282 2.4887927 0.70186687
-0.97049785 2.8682566 0.95116246
0.9698765 4.876745 -0.10717555
-0.8876338 7.9880543 1.5687758
1.0451407 9.564714 0.38780496
-0.30516562 7.5525756 1.7071931
0.20749165 6.7652698 -2.7174196
0.41951022 12.6423855 0.8405984
-0.19032975 8.528205 0.36084965
1.0393991 3.7542386 0.52235794
1.4269018 5.7859216 0.17836218
-1.7971553 0.70786935 0.82424307
-0.9896267 7.4164534 0.67257124
0.38741 4.278655 -0.63765323
-0.46624875 10.144132 1.1490802
-1.5984168 2.370867 0.721518
1.0859807 2.285715 1.1974285
1.056828 0.345188 -0.009431679
2.0158389 7.496851 -0.92481464
-2.1861546 2.7058485 0.5227896
1.1544516 1.4157902 0.8033185
-1.109124 4.078488 1.5946736
0.6872065 3.6244297 0.07591504
-0.71205485 4.0887175 -0.6012775
-0.13184053 13.703361 -0.08067908
-0.6716779 3.339483 -0.008904145
1.5537727 -0.91062874 1.4396344
-2.7978811 7.4589286 -0.20793459
-1.9993517 -1.6194159 1.457842
-1.6149317 6.195297 -0.05602303
-0.13134286 3.771535 -0.49450955
1.4100572 8.5206785 0.23296443
-1.4092182 4.749718 0.52427995
2.12958 -1.1368512 0.6616584
1.0928805 6.640554 1.3282253
-1.6758333 4.0457563 0.43871284
-1.4720342 9.033846 1.3612224
1.6864228 9.660979 0.27284828
-0.6545645 8.007184 1.1014172
0.31871703 9.10023 1.2854632
-0.44014186 8.412011 -3.7628846
0.5494867 3.452804 1.4681911
-1.0377302 10.036948 0.16936854
1.9046829 -1.840763 0.73936963
0.50914484 2.3564076 0.1850547
-0.4634749 7.693161 -2.588711
-0.22184786 4.8519287 0.0336017
0.005919587 7.565462 0.3497918
0.51221895 12.475485 0.49187198
0.34832898 7.1474442 0.05924259
1.6331965 4.0844193 0.79066294
-0.6581443 7.8805203 -3.6427166
1.2495271 2.2750344 0.3370402
-0.9336338 13.15761 0.8287209
-1.7264401 10.181134 0.8021087
-0.27577037 7.286746 -2.6171978
-1.1885937 2.669831 1.3147835
-1.0510255 3.2192218 0.63824284
-0.3658643 11.465062 0.7920232
0.99100906 5.6735187 0.9743366
-0.25654367 13.423971 0.10365981
0.9505485 9.428888 0.012093949
0.82627517 1.7334766 1.1661497
0.79057354 5.060555 0.17970203
-1.1253464 1.9429756 1.330732
-0.45818484 3.7618744 1.0350541
1.0276107 4.550014 1.0055515
0.7758958 1.6615235 0.77176344
-1.8505049 3.4402328 0.9590985
0.90733343 5.041117 0.57680357
0.83542985 10.731522 1.1651056
-2.3130274 7.1459446 -0.19699271
-2.2087219 2.357208 0.78370696
-0.86177385 4.5268965 0.999293
-1.0321312 7.856877 0.44943658
1.0721843 6.8391886 -0.048048057
-1.6570599 4.6666045 -0.19294839
0.56024146 9.201133 -0.13910732
1.3436931 7.502329 1.1653897
1.5223159 0.7933536 0.3751305
-0.54805106 5.55219 1.8100287
-1.9468944 -0.48012096 0.54279596
0.00043362196 4.600578 0.3810898
0.86959684 8.569233 0.29331774
-1.5936513 -0.3236042 0.34641108
0.2047846 8.640334 0.2395331
0.05524352 6.9349866 1.3178141
-0.16129462 5.991465 0.0102909785
-0.38756204 9.473583 0.24003066
1.4795145 7.4348516 0.803141
0.5321976 2.7890608 0.9874131
0.05677564 5.178947 0.015100009
-0.32264844 8.795605 0.099216886
-1.551565 2.8919353 0.04607257
0.7270875 6.260879 0.8547122
-1.0437297 5.532381 0.71874744
-1.2580851 6.057838 -0.21931016
0.28846952 7.1781287 1.6902418
0.38783818 9.012449 1.6708624
1.344964 8.120903 1.2641753
0.6428045 9.601183 0.8585374
-0.3757731 12.535303 -0.2590595
1.4883412 0.2526747 -0.19916633
-0.8067165 8.526147 -0.22152178
0.27735105 9.701387 0.3581856
-0.4738088 8.145137 -3.3089864
-1.6650919 9.734469 0.6470883
-0.60842353 9.859306 0.813331
-0.7551191 7.84965 -0.25516227
0.77375 8.988 0.16996405
-0.51176137 12.799192 0.03641773
-0.112650044 4.925708 1.0741956
-0.17322394 7.2274704 1.2325383
-0.32488024 4.52281 -0.65764564
-1.9033873 -4.5877805 1.3224232
-1.6464065 9.647874 0.19553348
0.105563514 13.276657 1.068433
-0.7238732 2.969741 0.13551733
-1.2664531 4.3439994 -0.09582345
-1.0458349 10.968883 0.75715274
-0.5375211 6.9687734 -3.3162763
-1.7953331 3.866312 -0.15876433
-1.8706378 9.041611 0.68860507
1.3414737 9.920771 0.98112947
-0.9486392 6.9990644 0.0488451
-1.7807117 2.8514898 0.42689446
0.58995193 3.2580755 0.12642367
0.11223538 2.862881 0.83646303
0.7286831 5.8544564 0.71522665
-1.0030782 4.074552 0.14266315
-1.1425395 8.956554 0.5675802
-0.87347674 13.137398 -0.05268149
-1.412626 1.2695471 0.61718416
-1.1621366 5.224573 -0.047641717
1.603077 4.608556 0.16311708
-1.8033013 0.5353571 -0.18228775
0.092980586 7.7242513 -2.2721932
1.3720863 6.096527 0.4480983
-0.40505493 4.945165 1.441489
0.44002572 1.4094964 0.67361087
-0.012441513 3.4531095 1.1294341
0.3176137 10.257499 1.0953474
0.1092162 6.786381 -3.8357778
0.18628791 5.4845843 0.3600568
0.6068519 10.960165 0.8809548
1.0514258 2.5580103 -0.48441315
1.9208575 -0.059706006 0.28298888
-1.0112505 1.0626767 0.708433
-1.6376057 3.0639079 -0.32140428
1.6463959 -0.8083715 0.060671557
-2.41507 8.470939 0.1533015
-1.0079961 7.8815627 1.1916677
0.4953797 7.814716 1.6081482
-1.2294817 3.005909 -0.32482523
-0.5784642 1.8762009 0.4581058
-2.6494675 7.7789903 0.04237896
-2.243354 0.30491638 0.39388123
0.45269257 6.9301095 -3.7082171
0.16240394 12.03369 0.65349966
0.7442841 9.330003 1.6389112
2.364307 7.4408607 -0.75729495
-0.35628802 7.6898685 1.0800087
0.43670845 5.700565 1.6127243
-0.8363012 13.486735 0.18404168
0.023996258 7.1845956 0.25032446
-0.6270618 3.0546336 1.2161644
0.07997642 2.6827307 -0.12820697
1.667516 1.4259844 -0.13660309
-0.4075095 5.4943557 -0.29577538
-1.3915802 7.9555793 -0.18229988
-1.6854964 -1.7258012 1.2021885
-0.92332673 7.3159585 -3.9203355
2.1177855 9.397771 0.23740081
-0.3530764 5.8367224 -0.6425955
0.12978998 7.70061 -2.964411
0.65768605 3.8712468 0.3931435
1.1284435 5.2154818 0.1378887
2.0193849 9.898716 1.0160011
2.5790076 -4.7241 1.5665674
1.9440393 -1.6004698 1.0320656
0.15052249 6.838107 1.683775
0.38507846 8.618626 1.6883072
1.4320556 2.6011074 -0.3873094
2.2707283 -2.309875 1.0772296
-1.7563248 1.7856511 0.2383182
-1.2619609 7.714669 -3.4763708
-1.2661567 7.3232474 1.510461
-1.522454 0.4540487 1.4901742
-0.13281797 12.214941 1.0422527
-0.36053905 7.0975556 -3.6316445
2.0617168 9.814173 0.31993374
-1.1937064 7.1764297 0.9882018
0.0051674647 11.949612 0.2828145
-1.5087692 0.49417377 0.06898504
-0.19160534 7.472236 -3.5022798
2.5737848 7.459945 -0.38067326
1.123031 1.8157718 -0.37744626
-2.2899768 8.174946 0.5567607
-1.5203103 8.814166 0.6402015
0.14293978 2.5157356 0.64390147
0.4942994 5.999553 1.3531855
-0.9619809 3.7158873 1.5490592
0.31956026 8.434002 1.313757
-1.0284745 1.9756492 0.69408756
1.9005382 0.6517522 0.32248557
0.951641 6.9043393 1.5875355
2.2959628 8.715905 1.0373634
-1.3528038 9.403293 1.4320816
0.6723629 10.725585 0.56378764
-1.3987254 7.0217896 0.76049125
-0.831228 8.640855 0.9971277
-1.6653523 3.2408345 0.6551222
-1.1714727 7.050163 0.45011568
2.5370116 -3.7912748 0.58598614
0.17863482 6.8380113 -0.50577265
2.234089 -0.9412719 0.9573889
-2.6502478 -4.1495485 0.47318032
-0.4698256 8.462796 0.6591723
-0.69276154 3.1921484 0.8851302
-1.827308 8.816714 1.0304126
-0.78896743 2.6697488 1.3137994
1.9884362 -2.5771585 1.2272841
0.3102365 3.605575 0.06457438
0.6821657 2.6835084 -0.4589577
1.5716516 1.3893815 1.1804726
0.37165868 9.362074 0.5710564
-0.37855393 4.5163126 0.409458
-1.6328619 4.8229184 1.2009199
-1.4171228 1.1577616 1.2895563
2.701235 -4.6036496 -0.025794657
-0.041932352 3.2533698 0.6067982
0.17593935 3.915881 -0.28957236
0.7134507 7.8873825 -3.6855965
-1.8799473 -0.29086587 1.5808451
0.1518204 8.277524 0.37535644
-1.1683869 5.0059767 0.26534525
0.29991513 12.307669 0.7893363
-2.6718755 8.530953 0.39613548
0.8344444 1.3176177 0.5591835
1.4273671 0.8850599 0.80286074
2.1596942 8.986949 0.15886614
0.58732 10.478921 1.3996767
2.036797 -0.08026003 0.7288464
-0.26732105 7.546778 -2.219473
-0.5006433 4.154486 0.4785448
1.9734523 2.1394734 0.34819874
-1.9041543 10.249628 1.1918416
0.16158842 6.1921496 0.44872862
0.69173664 5.486644 -0.45656425
0.58720577 4.747049 0.68336457
-0.83186907 12.793786 1.0038677
0.8279148 6.6363297 0.94988066
-0.3952193 9.185988 1.605577
-0.4019551 6.7764997 -2.6190383
-1.1271421 4.514359 0.68111295
1.3869003 -1.2016164 1.0852304
0.052590426 6.590668 0.9507961
1.2739377 3.8428454 -0.083688065
-1.2562633 9.644054 0.79192156
-1.1265738 7.0450068 -3.4398232
-0.5681468 12.565782 0.37791568
-1.8080078 0.9178626 -0.19444132
-0.6184848 8.988962 1.280653
0.13743979 3.5846329 0.7824046
0.35877186 8.1119 1.0393256
-0.11483502 8.244699 -3.2766151
-0.27832884 7.45021 -0.4541713
0.35576615 3.4915779 0.41094074
-0.92129296 7.440831 -0.01752899
1.7003798 10.054926 1.1731802
0.43899783 7.50796 0.36551732
-0.43341997 12.138197 -0.20730972
-1.6229588 2.7899668 0.7705347
-0.66103965 7.0131464 -2.5180962
0.7669985 7.1152616 -3.5105712
0.74610007 4.59324 -0.5807079
1.5701374 -0.54099166 1.0582447
-1.0380329 3.6434906 0.19666351
-1.1301512 5.6054344 -0.32908648
-1.1639177 7.5073204 -2.7916744
-0.26074 3.8928747 0.6648778
-0.4619467 13.727941 0.06586531
0.43762338 8.9367895 0.63975817
-1.9075067 -0.07912814 0.45854893
0.84122443 5.995683 1.1424683
-0.53229845 6.6186657 -3.4133315
0.8373551 -0.38606554 0.47246224
1.429962 8.965352 0.16001157
-1.3159848 3.8566217 0.3870232
0.018736072 12.832762 0.87127215
0.20897044 7.0273404 -3.1941812
-0.9673167 13.134254 0.3738776
0.29588085 12.069038 -0.18265563
-1.1725327 0.18930553 0.9428897
0.63822305 5.1658664 -0.19015405
0.82051086 3.9846373 0.7332851
0.97538 5.296052 1.4944015
1.2320316 10.02402 1.3945432
-1.3620743 2.49565 -0.014581805
-1.9923631 1.6615025 -0.05210831
1.9039358 -1.4549425 1.3987362
0.83942854 0.6215185 0.707963
0.17508206 12.190066 -0.5842627
2.182043 -3.630529 0.66596127
1.3387169 -0.08223324 -0.05507345
-0.37487116 8.011498 -0.02171722
1.6634445 -0.08641244 0.57931453
-1.1465312 2.2493038 -0.29752076
0.12694167 6.2335243 1.2692838
-1.5505624 5.7908716 -0.14687546
-1.035274 9.675395 0.034605384
-0.67407846 1.9445459 0.11061509
-0.07389214 8.509553 -3.5999043
0.7084713 1.1276135 -0.10432648
1.5472767 4.991938 0.16637771
-1.1768243 2.1151888 0.09145972
0.09954006 4.574498 1.7653486
1.4653357 7.367535 -1.9392853
1.8927836 7.4370832 -1.3255415
1.8095905 7.1724653 -1.1096731
0.02192722 4.204224 -0.5807983
0.9817181 5.6808925 -0.2902198
-0.67774653 10.723323 0.8233061
1.0965726 3.1553974 -0.18481262
-0.6639218 6.590046 -0.43146995
-0.16325518 7.372935 -3.89376
-0.50530523 2.3373508 0.011469821
-1.3378175 6.105894 0.54684436
1.6672314 0.6495035 -0.074772395
1.1529833 1.9113455 1.2935976
-0.5643387 8.08867 1.7765
-1.1342747 5.3093834 1.5462761
-0.9387224 2.4529939 0.9363409
-1.592444 7.3143654 0.07399625
-1.7815638 5.1213417 -0.013140451
0.7278872 1.9911124 0.114468195
-1.6530308 8.47499 0.9344744
0.9778632 2.9425263 1.1393152
2.0661802 -3.9357355 1.0078673
-0.5600929 9.542933 -0.10029565
0.3556291 9.510803 1.2127621
1.8818728 0.33919647 1.2256855
1.9394743 8.725596 1.0277421
-1.6709323 6.520578 0.21021244
-0.23897372 11.633824 0.43094975
-0.19230072 6.663666 -3.6454132
-0.695313 1.7174762 0.7725222
-0.030243278 6.6050262 -0.23779032
-0.941011 4.8153906 0.48833477
-0.09124066 13.231255 -0.4588812
-1.5594772 0.021503909 0.7711952
0.21294259 6.650508 -3.0775151
-1.105903 9.723228 1.2186912
-0.8429441 2.1993592 0.36906084
-1.0938487 1.1353512 -0.01264519
-0.5201482 7.384816 -3.2370462
-1.3588666 0.9507558 0.89648086
2.586414 7.9889174 0.66310596
1.6601437 -0.56758296 0.5827606
0.7660767 6.0583606 1.6379137
-0.46871433 5.9964433 -0.27949327
-1.8446082 7.8219495 0.594337
-0.83171 4.783759 0.057450827
-1.5077515 5.9094033 1.2428043
1.3732704 7.099663 1.0755244
-2.291009 1.4445988 0.94604295
-0.22108838 6.915206 -3.9987068
-0.5787134 13.253905 0.20035219
0.499893 6.9220467 -2.878017
1.0715866 -0.7996021 0.3932748
1.2159687 5.5141873 1.2586573
0.78232193 3.3873005 -0.2598543
-1.4795771 8.31722 0.58001477
-2.6690333 8.120103 0.29265532
0.3035782 3.0933125 0.33729875
-1.3474686 8.901178 0.97347015
1.1069546 9.12549 0.7118411
0.45523012 6.551596 -0.46942225
1.0170763 10.421194 1.3476177
-1.2419213 0.005514711 0.5068322
-2.243413 -4.545792 0.33825916
-1.0748516 6.5345025 1.5043203
1.1916714 2.4176195 -0.10669491
-0.4881109 4.756365 -0.32592678
1.3136548 0.61858404 -0.27104735
1.3252108 1.4457637 -0.3446098
1.4090483 -0.8343079 0.7597309
2.2519257 -4.3091135 0.4190564
1.709215 -0.07552931 -0.039408624
0.49017128 4.4912887 -0.014018521
0.1682254 7.938868 -4.1400723
-0.7977208 8.111873 0.10052136
0.21339868 8.015056 1.7252806
-0.5880229 4.049891 0.8553465
-1.0945783 2.456974 0.21973784
1.7422605 0.66802186 0.72633034
0.52218914 7.441616 1.5440966
1.6767251 4.7716484 0.5195532
1.4214269 2.1282408 1.1058528
-0.49752113 7.5728693 -0.09516325
-0.8661857 7.6117406 -3.4789383
-2.8036137 -4.575392 0.6729492
1.6591634 2.8420625 0.8224594
-2.0757701 -4.122978 1.5453517
0.20429929 7.4822297 -4.161281
-1.2838086 -0.64391094 0.90122694
-0.778316 3.3919985 0.3959982
-1.2963802 -0.33255532 0.6290639
0.6809834 6.7276673 1.2781827
-1.9026712 5.154868 0.34455615
-0.32919866 8.120808 -2.8789082
0.8881754 2.3201125 0.23809005
-1.2721279 4.282226 1.0235794
-0.22262242 5.125896 -0.31100062
-0.7584041 12.092599 0.115981705
1.4870377 3.3306165 0.3180012
-1.3794972 7.4955835 -0.18943244
-0.89614123 1.1421173 0.34453622
-1.1176977 5.415102 0.34425434
-0.9170387 6.967894 0.7017604
2.7341025 7.5437145 0.48704806
-0.3815868 5.3377604 -0.64081836
-0.074835226 9.410569 0.536921
-0.33974573 7.1184096 -2.303871
-0.5272896 12.747297 -0.5585535
-1.4036536 1.7698385 0.11306078
-1.1455628 2.8498206 0.0845732
-0.68410224 5.7034335 -0.54091007
-1.7386854 7.5409555 -2.3368392
2.148108 -2.0441651 1.273017
-1.6311177 4.453026 1.2052696
-2.032008 2.0952466 0.06853637
-0.7401741 12.445922 -0.4130965
-0.65989166 5.9935107 1.7715869
-0.7673455 9.532714 0.2779682
-0.70965594 5.6839542 0.70732284
-0.18510519 6.76198 0.119369164
-1.1799748 9.299411 1.0563236
-1.8683289 2.7516892 -0.19975705
1.717573 -1.9680952 0.99255943
1.8738173 -2.2310002 1.2261117
-0.9093145 7.897953 -2.6213298
0.81571347 3.8551955 -0.2557253
-0.91890776 6.2632194 0.34256133
0.5063509 7.048196 -0.34060895
-0.71087605 9.916019 0.03136121
-0.58316493 9.601057 1.6044145
0.48385456 3.988787 0.024351386
-0.78154576 6.260037 -0.097787574
0.88830304 5.222431 1.105826
0.6894664 10.266294 0.6223204
0.6721516 6.8923683 0.11059216
0.77422905 -0.019506048 0.4819037
0.41487077 8.132143 -3.8483458
1.0736396 3.5795047 -0.20296665
-1.0696708 8.19334 -0.22755094
0.41853333 2.431976 -0.30411613
-0.7377594 10.964167 0.47577617
-1.6220423 5.239064 1.0966698
-0.6220785 8.197092 -0.2754783
0.36577928 9.570355 -0.06409351
-0.20886943 12.54686 1.2025877
-0.1660951 4.346523 0.087055564
0.44114646 8.357605 -3.0980356
1.1397564 0.04128379 1.0833466
1.7787504 0.30578065 0.12678029
-0.05880561 3.8608394 0.9945817
2.066141 0.9874999 0.87003714
2.0735238 1.0212197 0.4753667
1.3657432 10.280258 0.36342877
-0.39004713 5.5002675 0.73881465
-0.49020183 8.752792 -0.25096527
-0.63049775 3.735532 0.5746505
-0.61424834 3.2140136 -0.44696173
-1.3414654 6.2380753 1.4019326
2.538575 7.8870215 0.2464318
-0.64129394 13.48212 0.87658274
-0.34130654 4.088972 -0.5967213
0.3060913 2.813449 -0.3876981
1.1806543 2.3038 0.81283176
1.348553 5.1020203 -0.1707963
3.0621452 -4.599655 -0.29358822
-0.572702 3.7196875 1.4781665
-1.133509 3.6346223 1.1289783
1.1745619 4.0152173 1.2973452
-0.9633331 9.776321 0.4980845
0.17788866 6.7961254 0.21323366
0.51649487 8.5935755 0.513606
-1.3512096 3.7478096 1.4614818
-0.8125193 2.0437865 1.0613812
0.41871473 7.4006906 0.91351986
0.8620676 9.309603 0.9550776
0.55343175 5.5278325 0.9592789
-1.0413625 2.6282809 -0.25020754
-0.759397 9.281301 1.6470892
1.351926 4.703709 1.1737547
0.08066396 6.427489 -0.58209556
1.5438333 9.302914 1.2537476
0.84909296 3.7118387 1.4543377
-0.6403727 7.357674 -2.342131
-2.232979 -0.7201638 0.21223447
-2.3118813 -1.4063267 1.219815
-0.23248912 6.594997 1.6435865
0.75575864 6.7004514 -0.24221112
1.7619233 3.0034842 0.016006542
-1.9376435 3.8081489 0.81218404
0.9795951 8.233666 1.3816978
-1.5310212 10.247451 1.3708
-2.035083 -2.9325361 1.2732168
2.216513 -1.6417195 1.2579631
-2.9736853 -4.561688 -0.4528573
0.57045466 4.2142425 1.6618837
-2.005711 3.0261889 0.73117346
1.9173244 2.211447 0.71834975
-0.17687069 9.734496 0.6777818
0.44793898 6.373921 1.116346
0.8111655 8.502144 1.6216774
-2.0083544 4.4497375 0.39096776
-1.1538035 8.634261 1.2062036
0.6421998 3.8666587 -0.62964445
1.479922 4.3924203 -0.1164396
-0.88072425 6.078202 0.75276953
0.35802212 8.825046 -0.17779814
-0.27439943 3.304619 -0.047469236
1.508991 0.40678367 0.96294004
1.2689096 1.8872894 0.3113201
0.041637212 7.7928176 -3.8579
-0.6333656 4.693877 0.65322095
0.39188355 10.034991 0.4710761
1.6378884 4.1599817 0.13736309
0.88738644 7.556163 -0.20921609
1.1361719 1.0681149 -0.30912024
0.3463334 12.099677 0.2623383
0.22157817 8.412761 -2.7686853
-2.360646 -4.585461 1.5691947
-1.7414697 10.629872 0.69296217
0.5118143 9.951971 0.09822541
2.193405 9.499536 0.955812
2.03641 -0.038582135 1.1334808
1.1948998 1.2992978 -0.023002092
2.5504537 8.664606 0.68572575
-1.7082126 8.0928135 0.8717393
-0.18600291 11.256881 -0.05153964
-0.3191385 9.869546 1.4895935
-1.2813194 7.7459273 1.5250318
-0.24891615 5.9678345 1.3577664
-2.3691726 9.587057 0.3910087
1.091083 2.9057617 0.4916015
1.2688463 4.149504 0.14915584
0.9227599 1.341046 1.0677667
0.5290255 7.7425647 -3.150715
0.30602226 4.8103786 1.0388081
-0.30078837 3.4198833 -0.39453328
0.6074442 8.165289 -3.4327073
0.01572066 3.3623407 0.18646896
-0.053627923 13.387012 0.42530128
-1.3328588 4.8159323 -0.4194177
1.9139439 -1.0577439 1.4528697
-0.8452827 10.026835 1.2041155
0.18588722 8.103058 -2.441661
-2.2367022 -4.5118747 1.2207767
-0.77372766 6.4210577 1.6925495
-1.8909143 -0.8754816 1.2077138
1.4447407 3.6090703 -0.36944807
-1.6654688 -1.3431364 0.9488931
2.2156792 -2.5306752 0.7749072
-2.3943884 9.18995 1.168139
0.7692943 1.8504951 -0.29173788
0.19450639 7.0541797 0.94069153
1.5475117 4.921383 0.868721
-2.5110042 9.246154 0.42874947
-0.5474439 4.1744456 0.08848217
2.6266599 -4.130794 0.7963034
0.976718 4.228179 0.41519308
-0.00604107 7.452752 0.9537526
-1.7257235 3.0750782 1.0858469
1.8865645 2.5531306 0.59845394
1.4944508 3.861944 1.0715818
0.8801426 4.1955137 1.0664178
-0.038288932 4.544531 1.0612919
-0.22437578 7.9719725 -2.282569
1.1712404 7.595389 -2.6231892
0.7495541 4.4061446 0.68615586
-2.2870882 -0.17846511 1.0762998
-2.1782634 0.91252995 0.54389304
-0.1170468 5.3852587 0.43416476
-0.5369142 6.7384353 1.8019171
2.3088825 7.6204615 0.32133165
2.5524492 -4.6038666 -0.60519
-0.89552134 4.988806 -0.26348677
-0.55464685 9.4814625 0.60833967
-1.8175263 -0.7461516 0.2887388
-0.28445974 4.6206613 1.7634434
-2.75514 8.571703 0.8361124
1.3830277 0.48237598 0.15946068
-2.5996258 -4.594757 0.23609461
-2.577264 -4.22661 0.92027986
0.046415843 7.086677 -3.6087174
-1.7120385 3.6519055 0.27221587
-0.9432629 7.6163974 1.5273163
-0.7987808 12.398198 0.78549993
-1.5018272 4.0546556 0.06463301
1.5235243 1.1853392 0.18861632
0.32197306 7.081293 -2.522308
-2.6311016 9.256962 0.8662944
0.19126873 3.1461375 1.0232289
-2.452304 7.224158 0.227477
-0.21567297 13.182068 0.7983896
-0.44649598 10.639935 0.24027708
1.798345 1.8233768 -0.009090433
1.0200056 6.0387793 -0.12005401
-1.2313589 4.77851 -0.0808206
-1.6262705 7.3004365 1.037449
-1.733184 9.349217 0.48542106
0.44835392 5.2979765 0.16327576
-0.76798743 8.401658 -3.3536172
0.6968769 8.444692 1.1676633
0.6797774 3.4504342 -0.61191404
-0.87343156 8.682628 0.5605549
0.34110454 12.964699 1.0097312
1.3138909 7.4344916 0.36142147
-0.4098441 5.2148333 1.0953906
0.22797914 7.34819 1.2894337
-0.22434638 4.9677496 0.41481623
-1.3950095 5.0639133 1.395485
-0.92978805 5.7982497 1.0673426
1.5478284 8.510427 1.0951244
0.30435157 4.556633 -0.37835866
0.8598625 3.344022 1.2715083
1.4705381 2.0827599 0.04549568
0.049664117 11.363763 0.692364
-1.1724287 5.2344933 1.0826674
0.31510818 12.444742 -0.4010244
-0.054128863 7.9305086 0.5277714
1.8620653 2.9186401 0.5048359
-1.3542802 2.348073 1.3458959
0.45360154 3.12576 -0.5505314
-0.22017358 5.5896354 1.368636
-0.17462845 11.607078 0.09669475
2.345595 7.1173906 -0.53667855
1.0495876 5.814321 1.4520795
0.24230294 2.8116593 1.2695159
-0.49145582 8.8240595 0.4641542
-0.5466403 10.218505 1.497964
-1.4220982 9.257949 0.7086515
-0.78076184 7.9575315 -3.2435217
-0.28224757 8.584713 1.297477
-1.400105 10.598703 1.2679317
-1.1770386 5.137921 0.6443671
1.1131176 9.080998 1.1161356
-0.5375726 10.458279 0.5465597
-0.56458837 4.901737 0.29034328
1.1178434 2.656047 0.2099681
-1.6974604 4.134014 0.8948588
-0.13713175 6.5205894 1.3022211
-0.5985469 8.446605 -3.0189233
-1.9615228 -0.9437049 0.70116913
1.5142665 5.387189 0.16716732
0.46922544 7.80488 -2.4387603
1.4993649 0.23027493 1.3371927
0.8868158 2.5836928 1.3003036
0.04960074 8.711908 1.6082127
-1.8493565 4.351016 0.054513507
-1.3414959 4.6748323 1.4827867
-1.6690995 5.6398835 0.9550412
0.56564355 7.5365005 -3.4837952
1.7917129 3.5789328 0.34142777
0.79329956 2.8176785 0.72011375
-1.004519 8.467408 0.12258633
0.09935486 8.550806 -3.2060347
0.655442 3.172804 0.9120052
0.37159052 3.2657323 0.7022555
-2.0444348 2.8497686 0.15157016
-1.8244457 8.622303 0.58684635
-0.12703334 6.317673 0.70396197
1.5137688 1.2926389 0.84857035
2.3155086 9.492277 0.5923852
-2.1188483 8.793937 0.31758332
2.1285446 -0.71616554 0.6484363
-0.4002609 13.145032 -0.12016095
0.4061547 12.766824 -0.18800497
-0.4691038 4.4398203 0.91122746
1.1404831 9.329604 1.4615107
-0.86826646 6.183082 1.2829945
0.057521567 6.984899 -0.14500347
-2.0980985 7.4976363 -1.5576992
-0.49118537 12.0704775 0.92865413
-0.26320335 6.9924994 1.626819
1.0750611 7.2524347 0.088650934
-0.43015665 7.276896 0.9758109
1.8327554 -1.8434693 1.326784
-0.60321677 9.732656 1.2250223
1.3450073 4.0351253 0.51651996
-0.9671608 4.028129 0.8824308
1.1124637 9.143318 0.33892184
-0.20101786 11.99019 -0.68191314
1.7144487 3.927781 0.41148674
-2.1029627 8.428417 0.36077574
-0.73198247 4.674459 1.3848203
-0.39008114 2.9933727 -0.21980582
-1.8055801 5.5290813 0.48113337
-0.56257504 12.472451 1.1173799
0.41133368 4.610614 0.37606788
0.028584754 8.92963 0.12217735
0.38481775 12.433919 0.033333946
-0.6909793 6.1894464 -0.52150965
-1.1472116 6.3511662 0.73333436
1.2479665 10.632617 1.052875
0.06779309 7.9388247 0.09402289
-0.20178284 5.4117446 1.7139796
0.2537049 8.130558 0.7028968
0.44732347 3.8569658 1.5704874
-0.916794 10.621184 0.46993473
-2.2387683 7.373711 -0.48713472
-0.5435855 6.77888 -3.76566
2.3520555 -4.377589 1.4404632
-1.7285866 5.857347 0.17090678
-0.011271155 12.876194 1.2495996
-1.61211 2.1717257 0.13413079
1.1886992 4.8259435 0.22181118
-2.6203222 7.4260464 0.53422564
2.4069052 9.061743 0.4641464
-1.0568348 3.7836292 -0.50153863
-0.015327732 6.8834944 0.59889764
-1.2529453 0.6715614 1.2550718
1.2834365 0.5888948 0.62841344
-0.15187438 10.935558 0.1277704
-0.48261747 3.2973638 0.6105132
1.2458606 6.4800076 0.31209785
0.07281352 6.053003 0.8940803
0.558473 1.375637 1.0342997
-0.79865044 7.205381 0.98236763
0.1533515 10.479823 1.3827933
1.3207438 6.14191 0.0743541
-1.8639485 8.1890745 0.5160947
-0.71294737 9.107555 0.5163238
-2.9230833 -4.7821527 1.6297417
-2.1199036 -0.067713805 1.4121178
2.3779647 7.6176186 -0.11303636
0.55644524 4.1874223 -0.30951557
1.4585913 1.6599193 0.6624147
1.6714959 -0.9120009 1.1003013
-0.1796522 8.539892 -2.932938
2.1776075 -2.102821 0.7441277
0.30959734 13.545092 0.45011607
1.7278113 10.019336 0.7071613
-0.13421963 6.63998 -2.8538604
-0.04969388 5.567032 0.004851182
-1.920967 -0.11839633 0.013921965
-0.042076077 4.8029056 -0.3669209
1.0214667 10.4759655 0.45361862
0.20363176 7.4490404 -3.715397
-1.3734219 7.4144106 0.6984985
-0.4818227 10.219717 0.16199753
-0.25195444 9.149842 0.2727765
-0.65665984 8.0590515 0.46589482
-0.15473248 6.529425 -3.2532852
2.270822 -2.7117066 1.1209763
-0.9976908 6.660399 0.38157535
-2.274205 -3.8453817 0.4882853
-1.0278649 4.2196894 -0.45386472
1.0767316 10.181537 1.0538464
1.2217414 8.946911 1.4167163
0.10165122 13.575877 0.7757685
-1.1111022 7.8392773 -3.1003153
0.5563341 8.56675 0.09844007
1.1924803 8.722564 0.49255022
0.8409035 5.425234 0.3465542
0.8919546 6.822589 0.454313
1.0969332 0.28438294 0.4634444
-1.9400991 -0.4624793 0.0837896
-0.3473367 9.487231 0.94616973
-1.8731136 2.3564942 -0.20574236
-2.1271124 9.706635 0.7408888
-2.0968342 -1.3790431 0.7896562
2.0477188 9.147067 0.6071901
-0.26095745 6.2407713 1.0627785
-0.5072131 6.145998 0.11921729
1.7859743 0.22512 0.81929016
-0.70679224 1.5009229 0.43861005
0.087616555 7.6894393 -0.3785984
-1.5721675 7.271619 -2.533609
0.26913053 5.0186405 -0.29903817
-2.0291164 3.4523969 0.5561438
1.6219546 -0.018057702 1.049348
0.57407486 8.327261 0.8179049
-1.7791607 5.502489 0.062762015
0.04426678 8.15933 -2.9272594
-0.6621191 6.5973945 1.343648
1.5302585 1.7507098 1.0227981
-1.9527099 2.6272182 0.88100046
-1.9431347 2.150299 0.96900314
-1.4711332 7.4943166 1.2713168
1.1379179 1.8680747 0.8809787
-1.6523746 -0.97623736 1.5443351
1.4289316 5.984872 0.773455
0.93258625 9.831763 1.0847442
-1.0261353 1.8090689 0.3307395
-2.4139352 -4.583004 0.67407346
-0.5888153 5.983176 1.0687222
-0.45527175 2.7035508 0.3941989
-0.38391277 4.5303698 1.3115698
-0.7143014 8.758798 0.13592649
2.1427472 -4.2889853 0.8595048
-1.5451765 1.4643494 0.9285216
1.0058125 0.006062532 0.19262168
-0.4631787 7.7302566 -3.3368294
1.5825455 -1.2658325 1.3816824
2.2810144 -1.8685893 0.98640245
-1.6137111 3.6906428 0.6473465
1.3744019 10.6496935 0.66012996
-0.63338256 7.9490004 -2.9149897
-0.8531946 9.395526 1.293493
-2.0567472 7.2206407 -1.376498
0.21192236 5.216655 1.0439873
-0.52831525 5.049773 0.7405974
0.91294974 8.078851 0.6839024
-1.9947368 9.600646 0.33134088
-2.678317 -4.3283043 -0.089721166
-0.78516555 6.8328414 -2.8501165
2.2833424 -2.9701767 0.84939307
-0.9257939 3.4052422 -0.48016214
-1.7376595 1.366668 1.3104204
-0.19323674 13.029016 0.26138854
-1.642816 -0.8648305 0.91971797
-0.109799385 6.1893 1.6224254
2.235626 8.089264 0.23008601
-2.3081956 8.784032 1.1070118
1.4202137 9.206816 0.8892797
1.0921301 9.591836 0.75188726
-1.8969113 1.2738266 -0.10680828
0.21456797 5.251846 0.66906416
-0.5338976 5.3732853 1.461234
-0.8084142 10.361592 0.19771373
1.7362586 3.3993945 -0.0677178
0.75629073 4.9635115 1.6347101
-1.4806911 7.006367 1.1974589
-2.4403584 7.459591 -0.056196127
1.8866265 -1.1977667 1.0409002
-0.38673583 10.873077 0.5575226
-0.7713775 3.6276443 -0.20063409
0.18193823 11.035376 0.94381636
0.19093789 5.624919 0.8328488
0.39900506 10.124834 1.5001814
0.81988215 8.046679 1.0546012
1.891635 -0.79179364 0.34301868
-0.15503176 12.876896 -0.2110484
-0.045927513 4.1603203 0.4141021
1.0288631 0.6184441 0.29786497
-0.5757 4.400953 1.6791286
1.6187195 5.192588 0.5144834
0.83596885 4.4947214 -0.21012427
-0.4583232 12.353924 0.09786124
-0.8144471 8.314989 0.8137411
-2.3624473 8.359821 0.93788683
0.234858 10.25695 0.18200347
-0.89181143 12.409825 0.38971022
0.20449984 10.932364 0.2948557
0.2859892 13.152181 -0.28460386
1.5561241 -1.5854434 1.2298001
-1.2864935 8.610327 0.35923654
-1.2463923 7.2211313 0.115145825
-1.2025299 7.747649 0.81890255
-0.23672575 13.462997 1.0412323
-0.2010404 7.9386554 1.6185232
-0.5210808 11.4293585 0.1155667
0.2848375 6.094507 0.12345048
-0.4919574 5.3029175 0.43300286
-0.056755383 10.132474 1.42457
0.11487428 10.58379 0.98446333
0.9628284 3.8795207 0.15369995
0.17321114 6.468026 1.6820672
-0.1533817 10.298958 0.13317361
0.75487804 7.7206893 -2.7602482
-0.26430285 6.603581 0.47172156
1.414836 3.1515965 0.6587591
-0.6647099 8.4236355 0.35306102
-1.6484325 6.7085133 0.9543857
-0.95380944 1.685148 1.082374
-0.02993108 2.8858352 0.45660096
-0.00023192388 10.612919 0.27110627
-1.9501187 -1.296319 1.1482351
-0.17960696 7.2475567 -4.222576
1.9907422 1.7190014 0.3165149
-0.79930794 4.3309917 0.68326116
0.48277465 3.7011364 -0.30241948
0.96181154 7.4032435 -3.314823
-2.0832293 10.554298 0.8207679
0.1260144 4.679222 -0.0054673348
-1.8358396 -0.44160405 1.2139437
1.4256223 10.318927 1.2229699
0.80526173 7.4677353 -3.7056723
0.70822096 10.235273 1.102346
-0.43657792 10.88967 1.1664531
2.1535075 8.534311 0.11668217
0.43887588 4.9012113 0.07954722
1.3368951 4.4802423 0.42153218
0.7158263 4.2647824 0.16802119
0.80904704 7.062802 -3.0537179
0.20261869 7.664912 0.70042574
-1.7590281 8.925534 0.3060279
1.8606385 9.578168 1.1726258
0.8816574 7.510045 0.30297986
0.83312243 7.970219 -0.2291105
-0.040682286 10.966327 0.56373703
-2.9471955 -4.503459 0.2915268
0.73680335 3.4809394 0.5196431
0.2835513 2.6863544 0.25757262
-0.71064883 7.620467 0.89735013
0.1635784 12.522284 1.1120661
1.5183572 2.8690069 0.35275602
0.029899947 5.9812875 -0.63443905
0.17451581 7.101655 -4.0419307
-1.2566435 8.139627 0.8783498
-2.1366725 -3.502324 0.8820817
-1.3314221 9.457599 0.011873232
0.5010079 3.7120042 0.75334424
-0.8023232 7.162026 -3.0819714
-1.360863 3.027925 1.2495193
0.8464211 3.555957 0.90872324
-1.4251027 -0.6415035 1.2595516
-0.48928246 9.845306 0.38897175
0.26106226 3.1899064 1.4148389
-0.9937599 7.1883297 1.329166
-0.50494474 6.621187 -3.00805
1.502658 -0.31011483 0.31178823
1.1488247 -0.4250486 0.18652268
0.81696403 8.888199 0.5311494
-1.5358021 4.515283 0.16404767
1.1173265 3.3617673 0.49627396
1.6537333 7.2157407 -1.5185891
-1.7781434 1.9502785 -0.21504414
-1.4285349 3.2635014 0.015412216
0.114734285 5.8411703 1.2528075
-2.2667315 -2.656729 1.0603682
1.2596861 2.1841905 -0.42348284
2.2778034 -1.3762028 0.94664055
-2.5974708 8.51917 1.1723686
1.1541526 1.3530343 0.31848937
-0.035252415 6.187861 -0.2783472
2.3017178 7.203092 0.14974433
-0.3030817 6.2661366 -0.59246135
0.23819405 4.2710323 0.20699392
1.7605472 9.224341 0.3390256
-1.6427844 6.4057775 0.6860449
-0.3555927 5.7093935 0.33802184
-1.9623276 4.0157666 0.17252067
-0.71608543 4.543674 -0.64262533
0.39616194 6.1430044 -0.5300484
-2.995131 -4.5990524 -0.075355425
0.56149393 9.864717 1.2268223
1.0193977 3.1632223 0.8189908
-1.9185815 -2.034316 1.396373
-1.0951674 4.021023 1.2423811
1.7821863 9.306482 0.8479248
-2.3301077 10.331559 0.6101231
-1.0545409 9.613066 1.615545
-0.029641392 6.4012475 0.124652065
-2.374741 8.067542 0.1718865
-0.71809924 8.632552 1.3529068
0.8896152 8.54493 0.7519531
0.42221418 7.565998 -2.7430892
0.36049587 7.8867035 0.36907804
0.20260246 2.2069647 0.39715484
-1.4797025 -1.0796162 1.2065576
-1.1119754 10.280642 0.67022794
0.46783224 9.203591 0.94170237
1.4722332 9.706235 1.3345052
-2.2308915 -0.49519315 1.3645016
2.1273787 -3.994424 0.5983418
-0.92041785 12.792291 0.172603
-0.35985258 7.6578383 -2.9209814
1.7518569 1.0662944 0.58663386
0.082407326 10.018975 0.7593319
1.2518708 2.9170704 -0.4845497
2.537013 7.1232567 -0.12682764
-0.38588497 4.065877 1.4945112
0.15742557 4.011643 0.7303815
-0.07054146 10.055812 0.3961148
1.2025379 3.9737637 -0.48569667
0.3492467 5.876618 0.5618627
1.6689934 8.543437 0.6610974
1.3790944 9.382862 0.13425536
-0.052951653 4.9836025 1.7150772
-0.36335686 11.974925 0.20820864
1.0236057 7.3564634 -2.9046628
-0.81373745 2.2508197 -0.14554428
1.439828 3.6389143 0.6292244
-1.7216936 5.8707604 0.5977813
1.754926 3.29236 0.712004
0.22652546 8.442087 -0.23132631
2.462432 8.321079 0.4640993
-0.07757995 8.755073 -0.20111223
-1.7609994 10.000009 0.36618954
1.497092 2.520155 0.09982935
-1.4724222 8.279469 1.2051313
-1.8211184 7.2899923 -2.148124
-1.5355085 4.907085 0.17561166
-0.6257335 12.131866 0.51701385
-2.2697756 10.332134 1.0243754
1.0254469 6.454472 0.6345555
2.0839472 -4.6433086 1.500309
-1.2142494 8.551644 0.8141579
0.78918207 8.115635 0.1340669
0.49148414 4.0982757 0.9016033
1.7181226 2.6815014 -0.172973
0.9335155 2.4656084 0.5811157
-0.33220127 5.8603497 1.7463652
-0.103690736 4.3357935 1.4849352
2.1580405 -0.79139817 1.256926
1.5015655 -0.45296112 -0.047950424
0.7202906 9.124921 1.3028632
-1.9854838 -3.875102 0.8188555
-0.58721226 3.6969204 -0.5434679
-0.6999392 7.4280005 -0.387655
-2.4298046 -4.159129 1.3281397
-0.3078947 3.9142983 0.23604359
2.114534 -3.075239 1.1574847
0.40347037 4.809813 -0.67171216
-2.244775 -1.8495907 1.2515647
-0.13572985 7.056603 -0.4939132
-0.4884624 6.257786 1.422239
0.16921726 12.8542385 -0.5162966
1.2320658 7.8711324 0.37474072
1.8161808 -0.3269947 0.90847236
0.75559753 9.505678 1.2747138
0.5328524 12.926412 0.6411243
-0.805391 7.677128 -4.0062923
-1.63436 -0.5826693 1.5607848
0.1686453 9.784951 1.5346229
1.8679109 2.624244 0.22222655
0.7563751 9.284763 0.5605814
-0.24247178 8.106661 -4.0840316
-1.016037 4.4097424 1.3142873
-0.36755684 3.701162 -0.115598336
1.4996941 4.5513945 0.8236212
0.5869064 8.154498 -2.6325803
-0.97192514 4.494079 1.6683241
-0.9936407 1.8517907 -0.14850663
0.38365802 5.2720456 -0.6007684
-1.3924525 3.024455 0.41885176
-0.4247932 9.378568 1.2881488
0.98945075 4.1578503 -0.1453292
-0.558931 6.3325243 0.5654573
-2.1956563 1.2617295 0.5652749
-2.3767822 7.577356 -0.81057954
-1.44843 1.7051067 0.54355824
-0.22060695 12.94418 -0.6085607
-1.5937737 6.7717586 0.5135576
0.34237468 7.9596424 -2.8069482
-0.7026488 3.981642 -0.2315736
-1.0877022 2.7848778 0.5247748
-1.3175857 6.044663 0.17798577
-1.0583965 3.260446 1.054087
-1.8166273 5.2701845 0.75684834
1.3938624 2.5762758 0.56295294
-0.67591894 7.653318 0.53129625
1.3131803 8.37167 0.71248233
2.4058573 7.668002 0.69284165
-1.8498468 0.27800804 0.2687413
0.7599972 8.780863 -0.19276488
2.3644526 -3.4116395 0.9380316
-1.8986418 1.7566937 0.7637751
0.73287725 0.6938219 0.084780686
-0.05934551 11.7221365 0.73955053
0.6034013 4.866224 1.3204226
0.33883387 6.313465 -0.17204851
-1.4791254 6.5629296 -0.13780035
-1.5105429 4.0526714 1.2902505
0.78621435 7.8272505 0.43787798
0.83963066 5.4181 0.7150032
-0.15347178 7.863662 -3.141502
-2.3221672 -0.2950911 0.6469191
0.23113364 4.227801 1.6453241
-1.1361941 3.8977616 -0.14349708
0.6110011 7.378785 -3.0953372
0.16201247 12.815413 0.0857419
0.20974302 11.635184 0.39225352
1.370164 6.7093277 0.98889774
2.0132387 8.369159 0.45602527
-1.5987799 6.067418 0.8828383
1.8559574 -0.67227805 1.4490992
-0.9642507 7.1746864 -2.6843688
-1.6987011 6.1882315 0.37339738
-0.82039875 5.2130065 0.5484985
0.40742895 7.2022038 -3.4273546
1.0444361 4.6536684 0.6049448
-0.38981375 12.421816 0.766881
1.5270623 1.0299586 -0.22653568
-0.431555 8.399301 -2.6598432
0.6641188 3.028812 -0.22485729
-0.7909679 5.315435 0.93781
0.48854008 1.7749053 1.0188569
2.1760416 7.5447297 -0.4831874
1.9848664 10.296948 0.84604394
-1.9404685 3.1510024 -0.058085714
1.1314492 6.460981 -0.06720891
-1.5784187 7.1514673 0.4224797
-2.7600372 7.1246195 0.33062017
-1.2480592 8.476484 1.5396132
1.4653105 -0.5368256 1.4225928
-0.78909016 10.438806 1.149027
0.6919445 5.9207826 -0.4503349
1.8143333 3.209363 0.3152276
-2.0123777 4.1510606 0.59841096
1.6820204 3.7839644 -0.018966561
-1.7273614 1.7719227 1.1255778
0.6816536 2.3982494 0.939487
1.7105902 1.4522918 0.4928678
0.35889545 4.932788 1.7147135
-0.139288 7.644276 -0.054472055
-0.87070245 1.5095099 0.06525556
0.290411 3.8749387 -0.64288884
-0.14667773 11.90939 -0.17408985
1.5045264 7.8131375 0.63079673
-0.62680703 13.198749 1.1397879
-1.8936738 0.28479668 0.713574
0.32249385 2.1556923 0.7895674
0.6094797 6.1970196 0.46977988
-0.5007019 11.800086 -0.50620854
-0.5530485 4.3426476 -0.3261803
-1.2451108 2.1866467 0.9828141
-0.16205311 4.4637146 -0.29214662
-1.5867342 2.7220204 1.2212682
0.7088622 5.816485 0.31747463
1.0954351 7.732325 0.06587447
0.6713202 7.038696 0.83739984
-0.33392417 8.808962 1.603925
0.4980597 7.5132194 -0.3187259
-0.20957334 12.356542 -0.7781509
-2.2923663 -0.364796 0.23655905
-0.7725813 5.093666 1.2994268
0.2043049 6.6754794 -3.470909
-0.58461034 7.088065 -4.0129027
0.7748263 1.3905853 0.16054635
0.27814975 6.653242 1.3175842
-2.2027705 7.110267 -1.0833842
-2.0797892 0.24013886 1.1102026
0.03903446 3.1106117 -0.3517702
-0.6824219 4.2366347 1.2316209
0.76554424 1.0203197 1.1020485
2.0597913 -4.2312384 1.3017079
1.8867767 -2.3393002 0.8752341
1.1714879 3.3333058 -0.5352442
-0.2758708 8.367725 -0.2971485
-0.76043934 2.5343359 0.6055593
-2.2663467 1.635308 0.61504024
0.3845323 3.3381782 -0.2220929
-0.22515458 11.141369 0.9231259
-1.8068182 -2.1748362 1.0578626
0.69243914 0.35255894 0.3910698
0.68695265 8.061822 -3.0344234
-0.7969915 6.966351 -0.33659002
-1.4125832 7.0438504 -0.1832004
0.77609706 2.425532 -0.10197972
0.3973154 8.67928 0.97018623
-1.1249435 7.525001 1.1104512
-1.6982375 0.18715581 -0.090423234
-1.4440391 5.4942956 1.3340453
-0.379588 9.157005 -0.16447313
1.9004737 -0.70686203 0.9537964
-0.53653854 8.829171 0.8847739
1.406767 -0.27411634 0.8203331
2.085958 -0.39418513 1.2883228
-0.42389682 6.8309536 -0.14438191
-2.2502434 8.956012 0.7358617
0.9826682 2.0255032 0.51519203
-2.0582297 10.07435 0.77349794
-1.1740124 6.390165 0.055252
-0.16852646 12.633126 0.1708798
-0.13759066 8.277078 0.74331635
0.27610388 3.0569205 -0.029278567
0.95745885 10.450799 0.84309924
2.1224062 7.1826653 -0.2270935
1.2457008 1.574411 1.1814269
1.2001156 -0.40535495 1.1111493
-1.0506122 6.389664 -0.31112242
-1.3462106 3.8661964 0.90048426
1.248772 -0.5240601 0.571848
-0.8364241 8.957004 -0.21589687
-2.2210238 2.274311 0.38628688
-1.8462125 0.64537776 0.42418358
-0.61267054 7.061891 1.3438563
-0.9945099 6.0774746 1.588976
-1.0535676 8.079462 -3.426619
1.9028304 -1.4041802 0.67761546
-2.2602654 -1.0490743 0.9463413
1.5150394 7.7844796 1.0171527
-0.35681084 5.305138 0.0852976
0.36428908 5.469286 -0.18445311
1.0881721 1.651107 0.50788665
-0.2861286 3.5243492 0.7991669
0.362281 6.7138124 -0.12132715
1.6130632 2.2518985 -0.27105162
0.38388336 8.19678 0.058329508
0.11464899 11.797027 -0.4472196
0.41605085 6.735193 0.90532374
0.043191593 5.389292 -0.36060822
0.14008833 8.003907 1.3549877
-1.2555355 6.9340243 1.496019
-0.5619834 7.449435 -3.7207048
-2.0056014 9.14029 1.1208227
1.0906413 0.4606195 0.93308467
1.8073348 0.98029035 0.10173312
-0.2505665 4.0611434 -0.20888275
0.98207194 -0.25918347 0.79887754
-1.3758866 1.89983 -0.26295313
-2.4921823 7.8644257 0.6574133
-0.97817373 10.319467 1.5092415
-2.1137338 9.199371 0.32616028
-2.4510033 9.595543 1.0741763
0.18884662 2.31712 -0.0038151112
-0.43981567 7.395471 1.4294266
-1.7140397 2.549272 0.10841669
-0.9044358 5.919726 -0.3307014
-1.9519114 -2.5007179 1.3305682
-0.42042774 5.9941826 0.72465026
0.6259185 0.76641715 0.41316035
-2.2170334 9.333864 0.748375
0.84470785 7.548934 -2.379233
-2.2787254 7.4762993 -1.216478
1.0096418 7.7127833 -3.0092006
-1.2116865 1.4394214 0.27537483
-1.0773978 1.5222989 0.6523391
-1.1781917 7.3595 -3.6568687
-1.1921971 10.338753 0.3130364
1.8240212 2.2585726 0.027786646
0.4496271 3.4526925 1.0945067
0.84614736 6.514062 0.18745735
-1.5427184 0.33923316 0.5213597
0.25030464 6.067843 1.6643441
-1.920362 1.3453736 0.87631303
1.2777171 1.0994533 1.0913299
-0.23383863 9.89518 1.0339378
0.30086175 3.802621 1.1388465
-0.65988785 6.8204856 1.0084834
-1.563883 5.099162 0.5283331
-1.3967841 4.053415 -0.41940683
-1.9235178 7.528138 -1.942651
-0.62498486 7.7608495 -2.2848158
-1.9585013 -2.6276748 0.95535004
-0.40878886 10.4846325 0.9782121
-1.1783628 8.658793 -0.20319942
1.198555 4.399565 -0.39673612
0.50193954 6.378552 1.5629103
1.1312928 4.4258404 1.3825198
-0.25357106 11.254267 0.4280479
-0.6245365 10.613818 1.3856812
-1.4841746 8.797872 0.031598147
-2.2358272 -1.7446797 0.888482
1.4279046 6.36117 0.79678124
0.25684303 9.683362 0.7812033
-2.276761 -0.93483007 1.3229066
2.711198 -4.179003 0.4440868
