0.025108583 6.9228 -2.4825993
-1.1271293 6.9565554 -3.059197
-2.090234 9.531158 1.2099209
0.043535173 2.554163 0.23372912
0.51365554 5.1707277 0.93038
1.3615005 3.3723512 -0.015751828
1.6804316 4.329236 0.5090817
-1.0801942 4.7731447 1.6142824
-0.06148066 5.169285 1.3789072
-1.7315109 9.383528 0.18459055
-1.3396783 9.149061 0.31692266
-0.31867033 7.7012587 -0.40488082
0.43729496 4.451559 1.0076984
2.2585044 -4.6300173 0.777308
-0.3641097 7.893798 -4.1672115
-0.04567939 8.778875 0.93689704
-0.52090335 7.208433 -0.027263686
0.38568076 6.7665234 1.6620115
1.0307386 9.990721 0.6818991
-0.62374353 2.8638139 1.0991435
-2.1370916 -4.2593794 0.65223145
-1.1794751 7.6196194 0.15433156
2.456748 -4.2537622 1.3183228
0.10426922 5.8188534 -0.2743206
-1.5670693 -0.048865862 0.18791744
-1.2578849 7.5118856 -2.6921468
-2.3079615 -4.2321444 0.20351624
0.36185187 12.226379 -0.19371116
1.1023602 6.92336 0.8866826
-0.22191814 4.172101 1.1045899
1.4722452 1.6498961 0.07812308
0.21027517 5.066188 0.30081564
-0.27660304 3.5618773 1.2574329
-1.4401834 0.6900606 0.55816543
2.066855 1.503386 0.5667522
1.9769287 9.10269 1.1159492
-1.6083968 7.800257 0.9301467
-0.79767513 10.219337 1.5297611
2.7880259 -4.2033176 0.13626353
0.11391838 9.962751 0.033796445
-1.5448596 1.1191111 -0.21242288
-0.15688571 5.1179075 0.76660776
2.8073928 -4.572851 -0.87911034
-0.87571 6.7643013 -3.3076591
-0.4098998 10.2179165 0.5650525
-0.69828796 7.651684 1.7270031
-0.045585714 7.885623 -3.756032
1.8892376 1.8153121 0.7910863
-1.1248729 8.958612 0.9525546
-0.6239929 7.7511873 -2.735766
-0.7642511 8.205104 -2.7294283
0.6205678 2.588791 1.2989002
-1.239032 8.429321 0.23613226
0.46620426 4.1389074 1.2983243
-0.5754632 11.759928 -0.089603454
0.86895823 1.0178792 0.45042217
1.3231878 -0.8570936 1.2399662
0.04952368 12.734552 -0.5637574
-0.27879202 8.140526 -3.5274606
-0.60288215 10.716616 0.9098215
-0.2297534 12.8155 0.5474315
-1.0730286 8.185745 -2.954864
0.43890744 7.863139 -0.26718897
0.8960637 4.634733 0.3526379
0.70724416 1.9969128 1.2617018
-1.0412784 0.9028239 0.33311087
2.1408715 0.70603514 0.71678746
2.4403348 7.352916 0.5921117
-2.0343294 3.2205815 0.16658106
0.99847627 2.7465768 -0.18397754
-1.4522548 10.08539 0.67413807
1.6330774 -1.6691933 0.881518
0.42306662 7.672553 0.99545765
-0.8794451 10.896286 1.1914465
-0.3108371 3.1983337 1.0128391
-1.3045917 -0.41443354 0.65344155
1.3401551 6.6475954 0.6167908
0.5236386 7.257922 -3.8499317
1.6331391 9.640543 0.8891047
0.22798386 13.444567 -0.2697208
1.3230724 5.2048283 1.1433487
-1.363518 10.447149 0.8999897
-2.5311499 8.032406 0.725314
-1.7986174 4.900711 0.70545614
-0.9551853 6.9282694 1.2747715
1.0378501 7.2393284 -2.4472008
-0.11425613 2.953629 0.09371093
-0.18292496 4.6969185 0.7062485
1.10266 8.413418 0.53467643
-0.15030679 7.0324335 -3.5128546
-1.7731633 -1.8306925 1.0393672
-0.5760455 12.891235 0.288368
-1.0897558 1.4739175 1.0746031
-0.47460175 7.0215507 -2.9799776
-0.84533274 5.0073805 1.3499259
1.2068357 0.38834822 1.260704
1.8944993 10.104059 0.31584436
2.5224032 -4.001665 0.9423114
1.3617189 3.6661596 0.2593176
-0.917125 5.8734684 0.059708253
1.2548082 1.4038279 0.42559195
1.261651 -0.30738968 0.5640751
-0.32994133 5.8039656 1.0954316
1.4545352 5.9430037 0.64135027
1.8817117 8.910381 0.31370133
-1.5403831 -0.06292197 1.4308612
0.6327279 2.1014585 0.56562203
0.34265423 4.7941504 -0.6833132
-0.64400625 6.677309 0.63313866
-1.8266482 0.5692091 1.4766417
1.649596 -1.2768004 0.77229
0.68823373 7.3276024 1.20351
-0.8517727 7.838566 0.1075327
2.9394026 -4.5885553 0.29891044
-1.1609409 9.88524 0.4709112
-1.7124095 2.2359953 0.3239414
-0.19887522 10.521578 1.3562279
0.53108275 1.9535208 -0.18272981
-1.3871591 5.414652 0.7573426
-0.3120101 7.0818624 0.33568293
0.42321986 1.4491515 0.37501383
0.6160389 10.5452175 0.887224
-1.3517246 1.7588639 0.8992871
0.8822708 2.0644574 -0.38058943
-0.85611403 6.5703735 -0.02176603
2.7978601 -4.4288692 -0.3808598
0.07605155 3.929994 1.4288752
-0.35956794 6.9391127 0.7068192
0.05352246 12.178246 -0.050066136
0.53759956 1.5500829 -0.005258428
-0.4987921 6.378764 -0.20983735
-1.6532705 1.3524241 0.17402601
0.57715714 12.906439 0.22383243
0.36340106 4.979782 1.3400838
1.1012542 0.96286 -0.2626089
0.65482116 10.340759 0.28311437
-0.19157077 13.66292 0.72182685
-1.6376591 2.3032675 1.1381385
-1.4273858 1.9204772 0.48971665
0.73389965 9.364426 0.34865338
-1.222364 6.241086 0.96710813
-0.12644872 7.304532 -3.1166508
-2.448684 7.3326235 -1.0624225
0.34557283 5.447089 1.263624
-1.2439264 0.6286736 0.18120769
-0.49265403 7.2787538 -4.159337
-0.507475 6.785941 0.22805962
0.8846743 4.2199755 -0.560923
-0.17409566 7.7323837 1.1938009
1.1065857 8.679649 -0.01677974
0.8056239 6.248066 -0.23678163
0.9698403 4.4949875 1.4956491
-1.3315079 4.232274 0.7177062
0.79157794 3.1167612 0.4677599
0.017290175 5.8140125 0.51362324
0.048018314 4.220727 -0.3167044
0.31026566 6.2527637 0.81417966
0.5502174 3.0159044 1.2993412
-1.2179933 3.3449001 1.4607198
-1.3561335 3.620603 -0.06185966
1.193516 7.8212347 0.9162406
-0.049940467 3.656158 0.42671007
-0.14048111 8.310986 -2.534226
0.21629664 7.641308 1.7154999
0.33087978 5.533122 -0.1003423
0.62906516 7.728151 1.2975018
0.2560876 13.564646 0.14648734
0.52557147 6.8183126 -3.265183
1.829868 0.061061725 1.4172223
-0.51458716 6.172284 1.8282597
-1.2448969 5.5918703 1.0614538
-1.6854489 1.4967811 -0.22257969
-1.1696267 9.505217 0.36503452
1.6636076 8.66434 1.076195
-2.6089377 7.6732016 0.60574675
-0.85348505 11.043165 0.74936485
0.6184155 4.614052 1.3184428
-2.1616406 0.80695903 0.90488
-0.51609325 5.7061396 0.02862777
-1.3508751 5.857044 0.7557775
2.2306032 -1.1967452 1.2124159
-0.58035636 2.1528292 0.80491745
-0.22463584 6.845334 1.1219594
-0.8011532 5.218224 0.148705
0.09591107 8.172634 -3.4979668
-0.7774497 7.417897 0.298342
-1.2293322 2.7350883 1.311485
-0.92688036 7.4932833 -2.5034904
-0.75931585 9.578396 0.96908915
0.015016498 10.324215 1.0412028
-1.838692 4.5727863 0.87743807
-0.43480396 6.9973297 -0.4753005
-0.012360366 10.415634 0.585822
-0.20300443 6.8776693 -3.184503
-1.5529859 3.519507 -0.36988932
-1.6515052 1.9293492 1.1404737
-2.3518052 -0.69698215 0.8391355
-1.0091968 1.052396 1.0933049
0.15118968 9.343662 0.9104488
-0.4188214 10.928169 0.1999113
0.62691855 7.6908083 0.041181676
0.06163463 13.2172985 -0.028991418
-2.135149 3.100041 0.5271752
0.07056521 8.299173 -3.879075
-1.582741 7.691635 0.19337755
-1.3890128 5.0077763 -0.33651453
-0.36453635 12.390705 0.48205593
1.2694297 3.4214945 0.8599428
-2.0504022 2.5179791 -0.0030186065
-0.93799806 4.0645533 0.5097834
1.1903017 5.6676545 0.5056094
-1.1047771 9.876862 0.88346076
-1.1454964 8.233929 1.2387526
0.06930505 3.439619 -0.4323343
-0.8704921 13.395048 0.5846107
-1.0218292 5.802684 1.5620816
0.81857574 1.627027 -0.2610237
-0.020557981 9.113348 1.2048714
-1.1221173 4.73466 1.1962729
-1.7674401 7.5486755 0.663784
1.1661797 8.250309 0.93645614
-1.287956 5.973365 1.4032512
-1.0250821 4.7485304 -0.21147949
0.61756617 8.134844 1.3303046
0.20673679 13.172434 0.35573012
-0.4397272 5.023984 0.01640375
-1.1775718 9.776489 1.2390504
-1.3079274 6.5764265 0.428975
0.7861012 9.728487 0.08630335
1.4992955 3.1115346 -0.34991205
-1.3443588 8.284794 0.89379025
0.3581559 10.6151085 0.45126665
0.5381795 1.1105459 0.23791763
-1.5758874 1.2950284 1.3715918
2.293447 8.406391 1.0150404
-0.056466363 9.574377 -0.08068439
1.0303061 7.1809616 0.5476301
-0.059204765 7.496595 1.5360405
2.0176501 -0.39765996 0.43148184
2.2553039 -1.4057107 0.8318176
1.3930457 2.888957 -0.026467018
-2.561512 9.634829 0.73218584
-1.421437 10.082285 0.2874632
-0.90969324 7.3242188 1.5432444
-0.82859004 3.8514643 1.1989659
-2.2446814 0.45261806 0.33246154
-0.014433162 12.449915 0.6856835
0.01260219 9.749832 0.34652585
-1.35854 7.8652954 -2.7673802
-1.5242319 0.45249176 0.9404483
-0.26989645 6.6506157 -0.5837679
-0.5838449 2.4725714 -0.12177011
-1.9317255 0.47048837 1.0767698
0.25403583 7.5152636 -0.046373054
-0.7446754 10.081783 0.84368086
-1.7712206 1.0533438 1.2123055
-2.4844823 7.528882 0.2494843
1.0077946 7.039239 1.2825935
-0.44637254 11.756685 0.7004837
0.6435952 5.2606325 1.6901653
-0.46028823 2.9056668 0.3777746
0.7394438 7.0369263 -3.051351
-0.35103196 2.5736961 0.15295184
1.9573793 1.4367216 0.23582962
0.33383596 1.845993 0.1876544
2.3461285 9.068489 0.8905269
-0.14145449 4.9024363 -0.70026255
1.6747994 2.102427 0.9561188
0.04280273 7.36479 -2.7008119
-2.6015868 7.6596518 -0.3423396
-1.375346 7.497903 0.4595992
-0.7295916 12.052696 -0.34087667
-1.0004798 10.608696 0.9348987
-1.3638091 -0.31281465 1.2196996
1.9571521 7.1576424 -0.591949
1.5302737 0.65894705 1.1278999
-0.53581464 7.3837776 0.62539625
0.90907645 7.1527357 -0.17255977
0.25289774 5.305187 1.6355462
0.5875902 8.1064205 0.073081955
-0.013920047 4.7615213 1.412312
-2.0986304 0.824538 0.14058313
-0.9977027 2.2873335 1.3225124
-1.9729481 -0.65467155 0.942184
-0.9573877 3.5603032 0.8922463
-0.25943363 8.073481 0.8478383
-0.37570864 8.502895 1.1174185
-1.7335372 10.574396 1.1353889
0.17003933 7.4660816 -3.336412
0.28292155 8.965017 0.90940726
2.051032 -3.0193424 0.85513264
0.7242421 3.8191028 1.1229684
0.50928366 6.228509 0.09579007
-1.9944503 3.623619 0.1227701
-2.7161875 7.350916 -0.4510806
-1.8917239 1.4355881 0.48157912
0.9296943 8.771181 0.6608616
0.89006937 5.5934315 1.5991889
1.0966218 0.023204263 1.0787525
-1.1776054 3.2514582 0.06919764
-1.4157305 6.6959543 1.2035983
-1.9626179 10.402309 0.49570632
-1.3979309 7.2871876 -3.2584105
0.007261321 9.551474 1.2470765
-0.7069157 12.832979 -0.39259624
-1.5219731 0.9780258 0.19926795
-1.0392873 6.597423 1.1039956
0.09004368 5.683593 1.6512065
0.8965223 7.2555914 1.6310575
2.108852 7.209117 -0.18751425
1.292033 0.06899385 0.5974141
-0.18942976 11.655516 -0.66018
-0.092988566 3.652081 -0.14061692
-0.21667048 6.1561995 0.37113324
0.27707654 7.2181015 0.56032574
1.2346456 5.279444 0.710407
-2.041 8.554998 0.76458347
-0.49087167 13.174414 -0.41705018
-1.4611225 5.5992765 0.37624747
0.8296552 3.0030053 0.061236802
1.4163027 2.7174397 1.1063364
-0.5022336 7.633729 -0.023202717
0.46596336 13.223543 -0.0363489
-0.13599294 8.283182 1.6017938
-1.5540802 3.436029 1.2208953
1.2436061 9.767576 0.18682542
1.9117634 -0.77117515 0.3416723
-0.88041985 6.998583 0.058733404
-0.5779699 11.393539 0.632133
-1.9485495 9.398407 0.54568493
-2.6052117 8.983059 0.7643856
0.23835707 7.264368 -0.41263783
1.0163767 7.8354187 1.317236
-0.32030433 7.4494963 0.27886277
-0.6295712 4.7943134 1.0864117
0.9856323 5.2456627 0.025566062
-1.091696 2.7026634 0.54373395
-0.93531716 12.719042 0.32116073
-1.1091413 4.264204 -0.4588275
1.1821296 3.0879579 0.22904992
0.3415501 1.7970638 0.5906633
0.8441204 7.6392145 0.95740867
-2.1417441 7.1471405 -1.104634
2.3966508 -3.987978 0.24741882
-1.7649336 7.1999836 0.82600075
2.7666912 7.3831196 0.4541992
-0.7835517 1.330967 0.83505774
-2.397983 -4.5750666 1.368743
1.4351847 6.3093834 0.8212675
-1.6237087 -0.47668034 0.94123805
-0.5996134 12.680862 0.61021185
0.8554908 2.836234 1.1100152
-2.6706157 7.1307163 -0.16350725
-1.4453928 8.763165 0.8892329
0.6792985 9.847157 0.4800908
-2.1942282 10.082823 0.39022398
0.0853017 9.392305 1.6045895
-0.7736728 8.36993 1.2042563
-2.511438 -3.9000154 0.75236654
-1.5789329 6.4256296 0.993768
1.485575 5.508238 0.8674221
0.011062307 10.873053 0.603776
-0.91503286 3.5711946 -0.11565657
0.53028667 2.4798622 0.58383167
-1.9003506 -1.2972844 1.5426635
-0.37565103 13.597297 -0.31607342
1.9847074 10.374559 0.5771336
-1.0962961 5.8603134 0.4029479
1.0601633 0.7107228 1.136605
0.18272588 4.848854 0.66045773
-1.3945439 7.799918 1.2466335
-2.1590672 7.1581125 -0.71485686
1.3445194 0.87889576 0.06887783
-0.16263652 8.802921 0.49610004
-2.2624326 -2.7672024 1.1153569
0.2311374 2.4605746 0.9859781
-1.0172533 9.0461445 1.2932429
0.054022983 3.9954915 0.04079309
-0.7511339 5.381633 -0.53119206
-1.7840776 9.765558 1.3372755
-0.116447225 8.137957 1.2338274
-0.825287 4.403283 -0.16319895
0.19095385 12.801243 0.5083481
2.7122397 7.362051 0.025477294
-2.2150214 0.04218467 0.10722625
0.83613455 8.05958 1.6432791
0.7095978 2.764586 0.3149104
0.5216701 5.477974 0.57558316
-0.5663291 3.2224483 1.2833397
0.3598917 8.358679 -3.5968447
-0.6630658 5.8258924 1.3886235
0.609303 6.5215874 0.73436546
-0.25647426 7.841996 0.26225382
-1.9868097 4.6706934 0.46360904
2.2398143 8.008419 0.7788464
1.8611534 8.859903 0.78488183
1.1988626 3.768558 1.2710414
-0.19119696 11.973587 -0.30486864
-1.8311548 9.881501 0.9880731
-0.16784778 5.5628004 0.81418204
1.0988185 1.6693332 0.07271072
-0.34180653 2.9188929 0.77638125
-1.1173468 0.6073866 0.94604945
1.4045527 7.0610456 0.61734796
-0.7821933 7.3040047 -3.5509515
0.0019760604 7.00084 -2.8794022
0.86573434 7.813485 -3.3354845
1.8073447 1.4359274 0.84323883
-0.47515678 3.5590882 0.3861065
-0.66710216 9.12948 -0.17208174
0.57831836 7.074435 1.5713692
-0.22390617 12.085463 0.6920996
0.09207499 12.46863 0.31918705
0.73792994 5.6678314 1.2861488
-2.1455798 -0.9722402 1.5050681
-0.36375338 6.5537195 0.919163
-0.14299667 8.201008 0.09583226
-0.63978636 7.35687 -2.8107793
-0.6066804 8.741173 1.7076232
0.19261256 5.9191685 0.13920489
-0.7722362 9.140608 0.95769274
-1.1932772 8.019527 0.1837557
-1.6159546 0.74221456 1.2250667
-1.8680468 4.6923256 0.079932705
0.18586409 8.647112 0.59405947
0.47681534 12.849665 -0.11282526
-0.9431839 6.957611 -3.6839838
-0.8054343 5.5099354 -0.121401526
-1.958066 1.376143 1.2701231
-1.7440624 2.9365573 0.40710256
-2.6718206 8.342589 0.58475804
1.1494732 4.8492565 1.3534746
0.32617158 10.246813 0.7461245
1.724355 10.497299 0.83818245
-2.8606963 7.5444775 0.3577731
-0.9556885 4.8561835 0.8673743
0.97167253 10.071295 0.25469273
-1.9724393 -0.9858128 0.73295355
1.2234933 6.7685037 0.30136412
1.0572989 10.800093 0.7853185
0.6835886 8.219927 0.44907996
1.2320142 3.4160757 1.2329011
1.5139196 3.148065 1.039509
0.027386006 8.355881 0.92462695
-0.17393482 7.5554724 -4.265048
-2.2987885 2.0107026 0.5012034
-2.8070488 -4.5441847 -0.7091186
-0.80814016 9.053259 1.6431856
-2.190256 -2.348597 1.3036535
0.9315772 10.058884 1.4748881
-2.0846252 3.921908 0.42352664
-0.19673297 13.035818 1.2576225
0.94796205 0.35440958 0.88675416
-1.9764962 -3.9258661 0.83670914
1.4126983 4.745371 -0.18062013
-2.541866 7.5407515 -0.7410362
-2.1698422 1.6842914 0.29107583
-1.5325224 3.1854908 0.7232257
0.556098 4.5397015 1.7001781
-0.8724971 3.411459 1.3438528
-2.281705 0.031006258 0.9138913
-0.47325933 8.308294 1.4235911
2.1630788 8.69738 0.5986179
0.9309794 5.089473 -0.42167234
-1.3206332 6.690667 0.81478155
-0.14063731 13.777962 0.3342262
1.1025006 4.221492 0.9046812
0.020904537 5.62527 -0.6557237
-1.4696383 2.5066528 0.83168817
1.0962908 4.9684486 0.9249207
1.3911977 10.240118 0.7328881
-0.7723285 5.5810614 0.3442142
1.0312433 8.750711 1.4055777
-1.5989857 8.6010685 0.1691719
-0.9447681 8.25086 0.86945605
-0.41371202 2.2611194 0.48272288
-1.198462 5.5844517 0.03994137
0.3983006 2.9013042 0.54362035
-0.5970025 6.4146967 0.27569264
1.5516396 8.979925 0.51400244
0.18851832 3.5555878 1.4656887
0.6139328 9.955017 0.8697566
-0.11434297 7.313308 0.6294583
0.10498685 7.923999 0.8991562
-2.016018 -0.5589225 1.5887616
-1.2310054 0.29918534 0.36998025
0.05096969 11.463493 0.05750998
-1.0230458 3.6498408 0.5574647
1.2604336 7.3186793 -2.158916
0.02028453 7.7463303 -2.619957
0.21394217 9.937828 1.0951319
-1.5219712 5.3556433 -0.202414
1.390079 9.828398 0.5706327
0.4802494 5.93007 0.99657303
0.6442436 5.269619 1.3326495
-1.1091933 10.219757 1.1276383
1.2472258 -0.8381003 0.26376104
-2.1436348 -4.58881 0.93153214
-0.37633264 12.97681 0.9032527
-1.1034148 6.7869244 -0.27521956
0.07458469 5.1887894 -0.6796882
0.60800767 1.1025026 0.704424
0.10864498 8.43764 -0.17752674
-1.5564435 2.2524288 -0.29217163
1.2701883 4.8997183 0.54936445
0.19282536 6.559847 0.5319857
0.14281666 9.072199 0.5300423
0.49805027 5.903715 -0.1562705
1.965688 1.9025061 0.3619702
-1.4106259 7.166297 -2.8893242
1.7357264 1.0859518 1.0997856
1.139437 7.633399 -2.2487552
0.15466401 4.184248 1.106922
0.42473772 9.180201 0.20577267
0.8746004 -0.7477982 0.57980025
0.52268106 13.319235 0.3337897
2.0798202 -3.9121675 0.9982071
-0.6645918 2.4584765 1.1251214
0.46565872 7.015912 1.205534
2.1582646 7.1727734 -0.96264875
-0.45310873 2.5067525 0.8419101
-1.0462673 2.8888097 0.9553293
0.93428874 4.839841 -0.08483739
-0.8443463 8.124802 1.5758176
1.0202127 9.613405 0.44410884
-0.13316667 7.887212 1.5841932
0.40782708 6.853862 -2.820002
0.4253015 12.7097435 0.8665199
-0.048021235 8.594431 0.1586681
1.0490601 3.7666187 0.5209482
1.1600935 5.7029505 0.00043178047
-1.8587098 0.5813844 0.603207
-1.041795 7.304366 0.57792675
0.49473274 4.419047 -0.55361617
-0.52171373 10.051655 1.1840363
-1.8172163 2.5033736 0.5724859
0.896755 2.293992 1.282728
1.1321442 0.20609781 0.021646343
2.0394545 7.507416 -0.8560014
-2.2920098 0.092756346 0.51709545
-2.1729288 2.7098227 0.6275164
1.1735644 1.4639792 0.8297795
-1.1427672 4.0725365 1.5691943
0.6400404 3.5919657 0.08124976
-0.49875772 3.9218636 -0.571156
-0.060255244 13.665218 -0.070404574
-0.84462035 3.148818 -0.055857673
1.6306062 -0.86897004 1.4451213
-2.8260722 7.4611425 -0.050081942
-2.1060104 -1.6832304 1.4104662
-1.6007044 6.1809645 -0.07947758
-0.06108182 3.8567524 -0.5250511
1.4254138 8.554947 0.2554404
-1.3043106 4.7265615 0.57053304
2.01958 -1.1377457 0.63081336
1.0822294 6.6528234 1.3244233
-1.6652553 4.0773544 0.45646197
-1.5030811 8.926481 1.2934897
1.6587591 9.755409 0.27358425
-0.53297126 8.059237 1.1027212
0.34584755 9.23773 1.3048759
-0.57744825 8.399775 -3.690126
0.5453572 3.4116783 1.4629015
-1.1559451 9.774498 0.08457324
2.2588947 -1.833971 0.7917954
0.40866864 2.522294 0.2219746
-0.3164059 7.55052 -2.55056
-0.087062195 4.817505 0.010645139
-1.1580038 10.124105 1.5196257
0.051235102 7.6050835 0.29654372
0.54445386 12.5609 0.4647736
0.5400598 7.2075634 0.030764163
1.7081425 3.9768214 0.7703891
-0.6195487 8.0989895 -3.438918
1.2510592 2.2694674 0.28865564
-0.85018754 13.155899 0.9485936
-1.4688857 10.04459 1.0499923
-0.29548776 7.203882 -2.7032142
-1.3706512 2.420939 1.3394465
-1.078829 3.2103953 0.6416061
-0.25020605 11.4189205 0.81086135
1.1936707 6.246207 1.1438825
-0.29778558 13.313816 -0.060981706
1.0542161 9.434217 0.042351767
0.85575724 1.6721308 1.1317875
0.91134894 5.066168 0.36200184
-1.3563335 2.0233138 1.3615897
-0.6045188 3.5130315 1.0141847
0.9284426 4.6019983 1.0587177
0.7446822 1.7153671 0.75642085
-1.8980229 3.2861323 0.7465744
0.8599621 5.308283 0.66721565
0.92934 10.6965275 1.1687231
-2.317543 7.134178 -0.3252274
-2.2421527 2.3283272 0.7486373
-0.8631804 4.4682827 0.98754346
-1.0258381 7.7456408 0.51350117
1.0829194 6.8169594 -0.07794277
-1.6058586 4.6466064 -0.2556557
0.6633421 9.363939 -0.06662999
1.3821974 7.578994 1.1739159
1.583916 0.76213014 0.38727367
-0.50449145 5.4439297 1.8158994
-1.9531341 -0.50627315 0.575698
0.06953518 4.5933504 0.35853833
0.88346446 8.505753 0.23542914
0.33399236 8.78846 0.23183535
0.119157225 7.04323 1.3628142
-0.15705925 5.9915266 0.025079649
-0.32077858 9.524746 0.23427618
1.4895546 7.455388 0.7935059
0.47286093 2.7656221 0.9260857
0.29004377 5.141817 -0.09551361
-0.37123132 8.861219 0.12756988
-1.4955294 2.8774576 0.01786023
1.0364883 6.509467 0.89423513
-1.035144 5.656886 0.6905327
-1.231854 5.9759903 -0.21738485
0.21785676 7.203267 1.7132783
0.3793258 9.060034 1.6717005
1.3348079 8.023395 1.2646675
0.72483945 9.585758 0.79520035
-0.19218662 12.395309 -0.39225024
1.4868879 0.28697687 -0.20350894
-1.0268433 8.496458 -0.20935154
0.4020735 9.636887 0.3177095
-0.40164414 8.099407 -3.0697381
-1.6908875 9.78022 0.63380814
-0.43871224 9.855001 0.8328481
-0.7067951 7.8593597 -0.28245687
1.0106845 9.065462 -0.041311823
-0.22032416 12.696953 0.17223495
-0.23359707 4.8952885 1.0787206
-0.16393098 7.2616234 1.2531798
-0.41180223 4.6217165 -0.67343867
-1.9339733 -4.623869 1.3291101
-1.557728 9.733313 0.22258675
0.07352688 13.212503 1.1162422
-0.7373861 2.7768774 0.087062225
-1.2563224 4.399967 -0.10207671
-1.1491015 10.718243 0.5805886
-0.53948855 6.9855795 -3.429393
-1.7389395 3.8420901 -0.21629778
-1.7332098 9.074709 0.7080414
1.3861347 9.8802185 0.98080015
-0.7328496 7.0510416 0.42675
-1.4564523 2.642796 0.42609894
0.5186963 3.2339578 0.20481604
0.09370051 2.8085518 0.81653917
0.7362621 6.194071 0.85289645
-0.95425487 4.164548 0.12662765
-0.96232116 8.923315 0.5667175
-0.8538446 13.157635 -0.08767887
-1.4503024 1.1186743 0.5733403
-1.1150546 5.16354 -0.0804109
1.5998085 4.60616 0.15120596
-1.7557085 0.40439963 -0.1703923
0.064303674 7.700054 -2.254034
1.3194606 6.2825108 0.36131412
-0.42286372 4.933016 1.4358187
0.42433888 1.4529185 0.74557614
0.052046847 3.415637 1.1126139
-1.0562532 7.6761103 -0.25332582
0.42034295 10.279583 1.1355813
0.021540955 6.7902803 -3.8365898
0.22547205 5.517974 0.30724505
0.6987097 10.9339695 0.88019717
1.1213837 2.462037 -0.45947433
1.9184339 -0.06174586 0.2791254
-1.0178783 0.9973743 0.70819986
-1.594526 3.0390353 -0.34176505
1.6123252 -0.824569 0.08805768
-2.6075337 8.502769 0.23018113
-0.8118429 12.428242 -0.14370123
-0.92909276 7.939479 1.1814213
0.50745106 7.858575 1.6256089
-1.1506436 2.929297 -0.3007218
-0.5786712 1.8841445 0.52051187
-2.6215935 7.805352 0.06266499
-2.1895928 0.42703986 0.7454239
0.4120627 6.8884497 -3.6660547
0.17202517 12.073206 0.7130275
0.8102925 9.331537 1.6161401
1.9298368 7.435997 -1.2328403
-0.45531467 7.6137886 0.96250486
0.50857687 5.6690435 1.6335137
-0.8358159 13.48527 0.20805277
0.07927281 7.2067165 0.22347656
-0.9774364 3.0322652 1.3763533
0.13152221 2.6171918 -0.14255312
1.7278161 1.3772874 -0.07563628
-0.43372297 5.379367 -0.19355682
-1.415482 7.8796005 -0.1391781
-1.7084286 -1.6046972 1.3695102
-0.9239036 7.3315353 -3.9485683
2.1641617 9.285387 0.22323069
-0.27631837 5.902443 -0.63667834
0.10443653 7.642596 -2.9985523
0.65906894 3.9067173 0.42964125
1.2354358 5.2814493 0.32353735
2.1136608 9.809555 0.956066
3.004198 -4.782152 1.5852871
1.964299 -1.7145042 1.0287244
0.02984796 6.817316 1.6788347
0.53871644 8.708099 1.6021752
1.4365547 2.695138 -0.39061028
2.2804463 -2.4587982 1.1150398
-1.7640321 1.7782581 0.26344675
-1.1504015 7.837762 -3.1700068
-1.2804527 7.227318 1.4649456
-1.4859073 0.41448832 1.4341078
-0.13927186 12.259058 1.068984
-0.3632828 7.198098 -3.7542124
2.0780673 9.690983 0.28445435
-1.1543596 7.1366186 1.0380027
-0.033599414 12.068144 0.36439556
-1.4913404 0.30765188 0.08030625
-0.17670175 7.512828 -3.5280695
2.5720005 7.38984 -0.36665243
1.1759765 1.7662463 -0.3581333
-2.2352264 8.23749 0.51780176
-1.3968863 8.800104 0.4716606
0.1490059 2.48274 0.6066979
0.59116554 6.0584774 1.3359065
-0.98666 3.7225084 1.5500028
0.24936283 8.320517 1.3267803
-1.0369174 1.9307528 0.6956135
1.9436052 0.66839504 0.37693143
0.8982173 6.857214 1.6348908
2.499207 8.678892 0.8393562
-1.3398919 9.240881 1.4190886
0.75498354 10.672548 0.548277
-1.389679 7.127488 0.7606493
-0.7814008 8.681057 0.89006925
-1.7308724 3.3475084 0.3986433
-1.2246039 6.9815865 0.4294846
2.6588407 -3.9934921 0.5717311
0.234278 6.8065424 -0.49117148
2.2286282 -1.0077479 0.90150464
-2.6408296 -4.2669687 0.71526515
-0.30443752 8.538992 0.74781215
-0.7934171 3.1744752 0.9618969
-2.0741868 -3.4659543 1.2239327
-1.8195434 8.821774 1.039699
-0.8469142 2.6690893 1.3647788
2.0312753 -2.7196999 1.1879237
0.20326558 3.619998 0.08824937
0.75936985 2.5165935 -0.45719457
1.5496798 1.4205594 1.138931
0.40720758 9.372965 0.6048111
-0.31513208 4.5216722 0.35654044
-1.6998715 4.895933 1.116518
-1.3103623 1.1318495 1.2552736
2.7012548 -4.6229267 -0.024837282
-0.26185995 3.2298949 0.4753328
0.25402308 3.8500533 -0.29032868
0.6885985 7.9158163 -3.6734095
-1.9512751 -0.12373385 1.5462832
0.26496994 8.326681 0.24719965
-1.150759 4.9989214 0.28030062
0.36345014 12.371876 0.70728576
-2.666939 8.775045 0.48166072
0.8310057 1.3798472 0.604182
1.3538625 0.80609035 0.8473815
0.70283234 10.446663 1.4139538
2.02906 -0.10913781 0.71098816
-0.30905747 7.527795 -2.1933773
-0.530015 4.139641 0.4533017
1.9208748 2.3141341 0.35801673
-1.8319893 10.203339 1.273936
0.24190274 6.1717896 0.43807793
0.71414566 5.482129 -0.4510947
0.8405613 4.8539276 0.6924752
-0.81491137 12.737375 0.9780984
0.75729275 6.7698936 1.0164738
-0.41504705 9.062958 1.642376
-0.32331258 6.7889423 -2.5811925
-1.011281 4.44503 0.65125513
1.4242697 -1.3136325 1.0884268
0.018813465 6.5598354 0.930797
1.2455196 3.7784152 -0.08535513
-1.3145093 9.605768 0.73459005
-1.1537299 7.053664 -3.4156575
-0.58023036 12.500238 0.16853756
-1.8228247 0.79635334 -0.1774855
-0.69026554 8.775545 1.2906096
0.13805738 3.5936437 0.7593702
0.42089748 8.1244335 1.0203695
-0.09579584 8.266792 -3.1883779
-0.2507681 7.337215 -0.45793372
0.37847376 3.5866618 0.40811223
-0.8606899 7.427087 -0.04596463
1.7595778 9.927237 1.1898549
0.4422561 7.4841614 0.3158536
-0.4502214 12.187895 -0.14931376
-1.4139144 2.867435 0.8256756
-0.65344024 6.952758 -2.5458875
0.7503174 7.0978756 -3.5099058
0.77277446 4.7102857 -0.59318936
1.7440612 -0.6088877 1.1112607
-1.0863345 3.7630062 0.17270961
-1.1505072 5.450886 -0.34124976
-1.0770242 7.3760138 -2.9799395
-0.2790692 3.9024029 0.6559833
-0.4363504 13.717093 0.08845661
0.53651595 8.976776 0.5809696
-1.9492269 -0.12452155 0.42747152
0.9033241 5.9295444 1.064893
-0.5385504 6.6036005 -3.251198
0.8023479 -0.32245928 0.5172515
1.4211497 8.978945 0.14473277
-1.3299835 3.895763 0.40271455
-0.00044098965 12.817991 0.8767469
0.15637705 7.0178175 -3.3001842
-0.95985913 13.109962 0.28902146
0.36090106 12.169394 0.28970432
-1.2699387 -0.107885055 0.89488614
0.63922083 5.2060623 -0.18589172
-2.3112526 -3.7958283 1.0914686
0.83131444 3.9911704 0.7639897
1.0243294 5.214343 1.4573996
1.3300548 9.996304 1.3807023
-1.3632598 2.4445825 0.055752628
-2.008799 1.5606804 -0.015823988
1.9398727 -1.4645648 1.4061699
0.70522934 0.3737115 0.5375985
0.20151332 11.969107 -0.44687706
2.4138856 -3.6941414 0.5779404
1.4307144 -0.12828201 -0.11744557
-0.3657022 8.068714 -0.31032217
1.666142 -0.12547609 0.5957835
-1.1778426 2.1922083 -0.2765602
0.15278003 6.2312098 1.2446737
-1.533459 5.734189 -0.15395866
-0.92126894 9.463655 -0.060025603
-0.7351247 1.8018477 0.15448056
-0.12250021 8.506882 -3.6194382
0.7594987 1.2198627 -0.1388272
1.5466754 5.048499 0.1308201
-1.1587589 2.0540686 0.14343825
0.14467584 4.54445 1.767581
1.4527457 7.51447 -1.9583175
1.6955655 7.4799385 -1.5672883
1.8090136 7.1870365 -0.98682123
0.23839253 4.1248846 -0.64840174
1.0902793 5.4650483 -0.27769506
-0.73515606 10.805317 0.46982324
1.1120331 3.1399112 -0.19771233
-0.7038268 6.5855284 -0.4315759
-0.18313527 7.539426 -3.9225545
-0.5453439 2.1613007 0.12374445
-1.3176227 6.2073345 0.5459503
1.7010369 0.6799897 -0.048169337
1.1108925 1.9404328 1.2952387
-0.56368816 8.364031 1.7673206
-1.1029193 5.1760645 1.585278
-1.0855837 2.5358112 0.9908582
-1.5805969 7.3067093 0.06548658
-1.7308128 5.0309954 -0.056414902
0.5712638 2.1665566 0.16260141
-1.6825225 8.465755 0.9713452
1.1793344 3.0403113 1.1200092
2.1282358 -3.9527411 0.5867965
-0.50855374 9.524183 -0.10093882
0.3964827 9.595652 1.1026936
1.890042 0.37648815 1.1964885
2.1400156 8.751455 1.0727246
-1.6666825 6.5428925 0.21450493
-0.2255865 11.621833 0.3827328
-0.25341332 6.6197987 -3.5801172
-2.7612042 7.9849253 0.4129615
-0.7702967 1.7260842 0.87973
-0.16473633 6.650096 -0.25985622
-0.8886384 4.803752 0.49156088
-0.08887766 13.413761 -0.40550756
-1.6264782 -0.13712484 0.68594146
0.22231236 6.658493 -3.103871
-0.893425 9.487204 1.3274786
-0.85823035 2.1318011 0.40111434
-1.1409991 1.0524352 -0.011706255
-0.45096597 7.3429074 -3.296311
-1.3850405 0.90420556 0.91355777
2.512579 8.106836 0.389638
1.5694475 -0.55519843 0.41717017
0.7531165 6.0188465 1.659698
-0.26390976 11.513443 -0.215516
-0.5157567 5.963235 -0.27525765
-1.8474257 7.9201517 0.550282
-0.80785596 4.8195515 0.06979306
-1.5179439 6.042015 1.1347994
1.386214 7.145344 1.082237
-2.2705507 1.4733698 1.0054232
-0.33312696 6.852316 -3.9523249
-0.5368271 13.280746 0.25504902
0.67839766 7.2243605 -2.6872892
1.0663443 -0.51478326 0.3077439
1.1982975 5.559229 1.279943
0.75108886 3.2736444 -0.20808625
-1.5080075 8.363153 0.5446315
-2.4645252 8.153746 0.14837447
0.14094746 3.254263 0.3575266
-1.5041713 9.195446 1.0032
1.2433984 9.1199665 0.7301241
0.49599093 6.5179577 -0.42690372
1.144408 10.381353 1.3328354
-1.2785437 -0.075620234 0.45360124
-2.3260546 -4.585554 0.48166913
-1.0330822 6.5413656 1.5142791
1.29006 2.4407043 -0.09337808
-0.5936017 4.733883 -0.32302672
1.3824193 0.6721678 -0.28423616
0.30255157 11.005093 0.97286415
1.4623289 1.5284932 -0.2909366
1.4318757 -0.965709 0.91787934
2.332819 -4.355937 0.15268625
1.7415302 0.0072537176 -0.02895848
0.61507976 4.5434494 0.046450984
0.2055449 7.754863 -4.131938
-0.537645 8.067543 0.0792145
0.20646085 8.088279 1.7011404
-0.4771968 3.8688917 1.0362158
-0.9685049 2.4300241 0.17532596
1.7223237 0.9036994 0.72037613
0.54655373 7.441454 1.6070755
1.67065 4.8105106 0.44686556
1.3096936 2.2293196 1.1272008
-0.12458855 7.3997602 -0.09743115
-0.72053945 7.5810175 -3.1368818
-2.6853175 -4.1829405 0.324216
1.6653602 2.8638005 0.8050757
-2.000485 -4.2403765 1.5422602
0.20590809 7.3859854 -4.135173
-1.2891941 -0.65821207 0.9417083
-0.8492154 3.4215221 0.28833568
-1.6090531 -0.3977787 0.3608365
0.6369964 6.709936 1.3620405
-1.9151025 5.082159 0.3269558
-0.33737928 7.9679575 -2.6868196
0.833315 2.4040337 0.24375027
-1.2531881 4.345298 1.0789587
-0.2739898 5.033654 -0.33952487
-0.7434976 12.073023 0.08070946
1.5175462 3.2838054 0.34735394
-1.3934574 7.490384 -0.18056223
-0.8567864 1.213053 0.38943106
-1.1248074 5.3935547 0.38201356
-0.9982132 6.869687 0.76040494
2.6333542 7.6602507 0.28560144
-0.3219486 5.369171 -0.6306381
-0.050650593 9.489988 0.58100593
-0.33491874 7.1134367 -2.3197303
-0.3884815 12.791483 -0.5793965
-1.3959539 1.6831882 0.12226485
-1.1345499 2.8050704 0.10529365
-0.5877944 5.7125225 -0.57220685
-1.6135113 7.604416 -2.4907315
1.9643466 -2.3018847 1.2554548
-1.6321917 4.469755 1.2155522
-2.0784078 2.0492477 0.12091768
-0.645373 12.4405365 -0.5116144
-0.6636995 5.818555 1.7747192
-0.7490803 9.553057 0.31135863
-0.6473197 5.7326126 0.72005796
-0.05306188 6.7784524 0.19077411
-1.144038 9.391531 1.0452018
-1.7484472 2.6357827 -0.25985253
1.9295576 -2.0202527 0.7652286
1.7262452 -2.0568237 1.0629251
-0.92442244 7.907686 -2.5599422
0.8320868 3.9621592 -0.2291415
-0.9488008 6.2531157 0.32465684
0.5701839 6.965951 -0.31615818
-0.7353625 9.835941 0.030518658
-0.6033871 9.8527565 1.5634172
0.47853357 3.9389377 0.06539337
-0.858593 6.185424 -0.10348115
0.9329308 5.31135 1.0647991
0.7158563 10.247168 0.6213596
0.7814882 6.8736486 0.15318173
0.7838232 0.044295542 0.37730074
0.3716548 8.048743 -3.9023542
0.9935914 3.5680106 -0.2426453
-1.053422 8.093691 -0.20720315
0.47124368 2.3493345 -0.27015173
-0.6535875 11.207224 0.35105598
-1.5786877 5.3140993 1.1488179
-0.68235946 8.306974 -0.24884202
0.35204342 9.6057625 -0.047491807
-0.16431348 12.635088 1.2402655
-2.315402 -0.30828238 0.2567802
-0.102890596 4.3905725 0.0018459915
0.41834813 8.367664 -3.1072254
1.3914485 -0.12278773 0.90605557
1.7978666 0.35813734 0.157897
-0.07685621 3.8079114 1.0591758
2.0349388 1.04529 0.8737618
2.0836725 1.088243 0.49543592
1.4200523 10.129385 0.31231022
-0.3452819 5.723955 0.3860178
-0.55451095 8.744463 -0.24983418
-0.6674808 3.7551117 0.6703565
-0.55494976 3.2130432 -0.40063894
-1.3609521 6.362255 1.3901737
2.3659167 7.8010254 0.15709794
-0.9211554 12.550444 0.6438978
-0.64794785 13.4981785 0.86340964
-0.23430741 4.2327204 -0.6078136
0.40479738 2.7412076 -0.41404724
1.091039 2.4444385 0.91246915
1.2966883 5.119275 -0.19769591
3.0745773 -4.569315 -0.12717667
-0.59398556 3.6627383 1.4504799
-1.1967561 3.6200256 1.1612998
1.133981 4.152522 1.3283439
-0.8328724 9.730949 0.6308923
0.33653092 6.8761196 0.2423535
0.5752095 8.5910015 0.52735543
-1.3719964 3.7595859 1.473767
-0.8191742 2.0856357 1.0677304
0.37430012 7.272746 0.91620207
0.9636136 9.323576 1.0904479
0.6348555 5.5641956 0.9460119
-1.0002253 2.555398 -0.22358382
-0.6415653 9.456257 1.6411855
1.4136283 4.779153 1.0524466
0.10690817 6.4320354 -0.56251764
1.5790071 9.247435 1.2459373
0.8716049 3.5682201 1.3905807
-0.6574757 7.312975 -2.3593607
-2.2230072 -0.68608904 0.15535074
-2.2843966 -1.3471465 1.2999341
-0.34626204 6.5096264 1.7443454
0.8175943 6.635518 -0.22776875
1.7632791 3.0712667 0.03198365
-1.9491951 3.8772893 0.79117286
1.0137186 8.274513 1.3372202
-1.441679 10.386948 1.3424206
-2.025754 -3.0406399 1.2664173
2.2623072 -1.6121036 1.1907749
-2.9830136 -4.576359 -0.32438815
0.7138958 4.2081366 1.5852833
-1.8633747 2.879403 0.8215431
1.9316126 2.2313457 0.7252869
-0.12731898 9.640465 0.90657353
0.45656842 6.430064 1.1167059
0.830034 8.4745655 1.6397142
-1.9596865 4.334819 0.25793463
-1.1040807 8.6349125 1.1715238
0.58918023 3.9681835 -0.6016841
1.4816806 4.373307 -0.12131797
-0.93522424 6.071105 0.7365204
0.58758724 9.016886 -0.1495325
-0.5170785 3.1911397 0.11039285
1.7206186 0.5406152 0.7829037
1.3370017 1.8609145 0.37899047
-0.028671399 8.0134735 -4.1300154
-0.6032648 4.5531874 0.6541308
0.3123756 10.043983 0.4494583
1.638349 4.163192 0.1161129
0.9770812 7.515937 -0.122166276
1.128344 1.3436713 -0.33748072
0.2039896 11.764702 0.34767836
0.17735344 8.396502 -2.7976503
-3.0207796 -4.782152 1.5445883
-1.7466881 10.287058 0.86369646
0.5137422 10.008774 0.10418974
2.1916866 9.421967 0.9634228
2.0405154 0.03229399 1.0967994
1.232871 1.3236837 -0.012144649
2.524002 8.607317 0.45939767
-1.745446 8.13835 0.8148386
-0.17767566 11.231897 0.40727615
-0.20586991 9.775366 1.5200872
-1.2568629 8.020433 1.5492504
-0.12632167 5.953168 1.3734479
-2.3597908 9.590313 0.3948009
1.1008677 2.823525 0.48606157
1.3022307 4.07893 0.21824457
0.95873964 1.3187582 1.0638752
0.4703899 7.7383194 -3.1528802
0.18870112 4.832143 1.037916
-0.22957805 3.2328458 -0.23760086
0.5972133 8.146032 -3.395629
-0.1818651 3.405889 0.13228986
-0.13169155 13.428875 0.32019493
-1.2589908 4.6303644 -0.48274183
1.9575434 -1.0442398 1.4225498
-0.8409765 9.912399 1.2245196
0.14869457 8.096849 -2.4404001
-1.9776642 -4.2284174 1.1061804
-0.71234965 6.5215454 1.7441201
-1.8569455 -0.82464707 1.2432277
1.3823383 3.5746117 -0.4044538
-1.6356428 -1.409514 1.0132637
2.2507653 -2.726657 0.8323487
-2.3740044 9.191971 1.1784558
0.84395015 1.9247406 0.020689875
0.042356618 7.0565434 0.94563913
1.5572575 5.0620804 0.8137736
-2.5322251 9.242624 0.45406497
-0.48627442 4.206377 0.08557959
2.6016116 -4.3323507 0.917686
0.9850892 4.224395 0.44608045
0.011760583 7.493891 0.97089374
-1.7323477 3.1394892 1.109467
1.8702528 2.6172686 0.60012805
1.4431114 4.0220146 1.0820637
0.79156554 4.2346773 1.1345391
-0.015451882 4.5220556 1.0569427
-0.23339614 7.9480324 -2.2872548
1.1464324 7.592165 -2.6159506
0.74447036 4.425496 0.71966934
-2.3347397 -0.37975675 1.0169163
-2.237331 0.8018067 0.5109753
-0.10602997 5.387245 0.4565724
-0.4901234 6.857441 1.8086655
2.267436 7.7302322 0.52600074
2.5364208 -4.6064987 -0.5865872
-0.7319967 5.1063423 -0.24796218
-0.46977836 9.480593 0.660944
-1.843782 -0.74031293 0.27300286
-0.24395502 4.606594 1.7720325
-2.7576861 8.5944195 0.88540244
1.3798068 0.49980572 0.16600998
-2.6278267 -4.5955048 0.14156482
-2.4921374 -4.200079 1.1001785
0.0886921 7.215349 -3.7126646
-1.6447039 3.6976519 0.19991916
-0.976334 7.752055 1.5318575
-0.6994654 12.335709 0.826545
-1.450403 4.046707 0.03572406
1.5202544 1.2226465 0.20736563
0.34378332 7.092024 -2.536405
-2.6359367 9.302168 0.9132405
0.0038127033 3.2015386 0.74337137
-2.441732 7.1680937 0.10246615
0.010386963 13.169294 0.6886339
-0.47700906 10.530314 0.24610952
1.8290772 1.7787349 0.012895172
1.1764143 6.0945196 -0.038678583
-1.3751755 4.8120794 0.0019552363
-1.5483727 7.4240437 1.1491985
-1.5574555 9.411666 0.53701705
0.5670308 5.322069 0.21383375
-0.800508 8.393751 -3.3369074
0.66268015 8.530613 1.2420306
0.70238936 3.3795476 -0.5894146
-0.86945057 8.519545 0.4727847
0.37527192 13.078992 0.9335921
1.3123932 7.427556 0.35994065
-0.3229481 5.303549 1.1032672
0.2674796 7.4263 1.3065386
-0.17886105 4.973378 0.39686465
-1.4002488 5.076823 1.383138
-1.0014678 5.8510094 1.0836127
0.85735047 0.71031773 0.7393284
1.9559464 8.395042 0.86841965
0.25120163 4.54197 -0.2656563
0.86538243 3.2372417 1.2281494
1.5740564 2.0529432 0.14194709
-1.137887 5.18075 1.1138225
0.18196037 12.312748 -0.5553377
0.039309755 7.9928236 0.48459268
1.8487935 3.0538192 0.46447563
-1.24722 2.1605568 0.96141815
0.36831355 3.1831965 -0.5428941
-0.017870542 5.564316 1.234164
-0.17460439 11.819054 0.04921504
2.3750806 7.428564 -0.7235682
1.0836065 5.925087 1.4098909
0.24250993 2.7396412 1.2606604
-0.5589558 8.798683 0.5232558
-0.37286973 10.204819 1.4715803
-1.2953899 9.15715 0.6802715
-0.82367814 7.7538013 -3.5099144
-0.011941682 8.593716 1.2943686
-1.3309836 10.750938 1.2005918
-1.1467822 5.1117587 0.66600955
1.085603 8.961687 1.0477526
-0.7260556 10.446871 0.65892607
-0.53292465 4.8752823 0.36184728
1.1328988 2.6550179 0.18430927
-1.6730244 4.170622 0.91244566
-0.1851941 6.4581156 1.3479638
-0.6418449 8.445595 -3.0151448
-1.5742183 -0.72167397 0.5980189
1.5404713 5.5928946 0.43987983
0.44306415 7.7999277 -2.433885
1.5199292 0.23591089 1.3037655
1.0755029 2.6070757 1.25271
0.19294453 8.586502 1.6850197
2.201614 8.126938 0.22507095
-1.7659745 4.289301 -0.12159726
-1.4479682 4.733062 1.3926542
-1.6949929 5.657633 0.87309015
0.5472332 7.5705986 -3.4925685
1.7950404 3.6102896 0.6185131
0.80489457 2.7615 0.71646035
-0.87019277 8.334668 0.11024713
0.10297599 8.548946 -3.2651258
0.64031315 3.1260967 0.8829216
0.4030007 3.2858324 0.67492414
-2.0930953 2.8001547 0.25885105
-1.7436914 8.694126 0.60472584
-0.073433176 6.2535458 0.7068814
1.4692531 1.2327497 0.7605872
2.3212886 9.508167 0.61322045
-2.0409656 8.760794 0.337593
2.1366181 -0.72053814 0.69497633
-0.49266356 12.987083 -0.061105303
0.3326595 12.60504 -0.35662895
-0.42911536 4.5056014 0.98717713
1.1763418 9.204712 1.4322255
-0.93882847 6.207924 1.2661974
0.2085565 7.0242357 -0.11423724
-2.0528297 7.4891014 -1.6755524
-0.4556256 12.078556 0.95759857
-0.22912571 7.1581926 1.6524887
1.1474873 7.142868 0.16827977
-0.38595766 7.219833 0.9799776
1.9396219 -1.8936636 1.3510287
-0.4692855 9.638294 1.2346892
1.3390896 4.0636826 0.60650027
-0.9503054 4.041173 0.88943624
1.1200709 9.200624 0.36834446
-0.14149848 12.020591 -0.6837387
1.7097406 3.887876 0.3550419
-2.271834 8.490013 0.21038982
-0.75586116 4.603435 1.3786933
-0.3685149 2.8600683 -0.14476338
-1.8291011 5.465493 0.48622584
-0.52198887 12.487282 1.1687517
0.48496455 4.6569633 0.44208044
0.029025508 8.989077 0.12694901
0.41071594 12.517958 0.07461023
-0.7382848 6.1665573 -0.500597
-0.9815122 6.458945 0.69249094
1.3317873 10.587542 1.0485795
0.20295833 7.9549537 0.053752776
-0.15443882 5.364607 1.6872518
0.32866055 8.232958 0.6521505
0.47068906 3.8189006 1.5623865
-0.86410594 10.454342 0.2939167
-2.2882671 7.4507084 -0.51204073
-0.60945547 6.721904 -3.6660058
2.0864167 -4.2550087 1.3659368
-1.7457738 5.815669 0.12814453
0.16537888 12.818909 1.1830895
-1.5456326 2.071877 0.057834506
1.2281356 4.856806 0.17743862
-2.6022992 7.286456 0.4770875
2.4227247 9.04178 0.5133519
-1.1263834 3.6164923 -0.4474013
0.023174934 6.8970776 0.58698857
-1.2573478 0.7008512 1.2762811
1.2411602 0.58363867 0.60614467
-0.16669819 11.133474 -0.00031763865
-0.63236487 3.2706828 0.63334835
0.884514 6.4263344 0.15677707
0.05113411 5.9375696 0.948702
0.5906249 1.3640306 1.0694749
-0.75563955 7.1390934 0.8161584
0.23723853 10.494654 1.3830273
1.4281726 5.908312 0.20202625
-1.5772197 8.124401 0.19905306
-0.6043662 9.148029 0.59194624
-2.2345052 -0.19855547 1.3271096
2.425831 7.616865 -0.14808293
0.48498884 4.1921654 -0.23513001
1.4859931 1.6924562 0.7379122
1.8260183 -0.94438094 1.0224633
-0.18962166 8.538923 -2.9463553
2.2285604 -2.2677932 0.7858578
0.18366027 13.612217 0.52727747
1.7342103 10.017378 0.7011057
0.01623109 6.653365 -2.782938
-0.07488774 5.220989 0.05641043
-1.9394922 -0.36381125 0.07007074
-0.15666714 4.627344 -0.3510207
1.1107061 10.424656 0.42983997
0.208343 7.5667105 -3.7435002
-1.3383598 7.5238323 0.82716393
-0.5691451 10.180822 0.10540362
-0.24817821 9.174744 0.3722744
-0.39523494 8.095154 0.49759644
-0.13691789 6.5360565 -3.1929507
2.185364 -3.0425692 1.1578631
-0.92764306 6.6853156 0.35247988
-0.9078356 3.9307313 -0.5101347
1.1610036 10.147627 1.0502155
1.401017 8.885122 1.3027203
0.10960044 13.503332 0.8959235
-0.984483 7.726098 -2.8686013
0.543993 8.5365925 0.07944888
1.1742325 8.810938 0.3970688
0.8936856 5.546711 0.3148328
0.89247787 6.796091 0.5532508
1.0906763 0.29707915 0.42537522
-0.3612898 9.319471 1.0447543
-1.8884115 2.251721 -0.154232
-2.1374545 9.7182865 0.76284397
-1.9746463 -1.5194638 0.7985294
2.055789 9.171572 0.60985315
-0.2675714 6.2127686 1.0617869
-0.5188453 6.0947227 0.09008762
1.7032373 0.15535003 0.8983103
-0.68621135 1.5395918 0.50015575
0.11118643 7.6439667 -0.39074993
-1.5673811 7.2461224 -2.5709617
0.13592166 4.939433 -0.36178493
-2.096009 3.534568 0.49784374
1.4139678 -0.12726663 1.2948945
0.74565876 8.368654 0.8278017
-1.7920082 5.427541 0.07273689
-0.042269573 8.055437 -2.8807974
-0.6195481 6.5938606 1.3573151
1.5019524 1.849375 1.0895803
-1.9429224 2.519524 0.9220091
-2.1798267 1.1378202 1.160914
-2.002006 2.1277032 0.97361803
-1.3067422 7.5886335 1.524303
1.144736 1.852134 0.90181315
-1.7472022 -0.8887317 1.6094949
0.9917877 9.774553 1.1096168
-1.0634062 1.7000375 0.3665169
-2.5842142 -4.598731 0.9286059
-0.63915324 6.0321093 1.0153415
-0.24527892 2.5958662 0.5433153
-0.34506887 4.542774 1.3582437
-0.7494776 8.775717 0.15233202
2.0489802 -4.6219454 1.171963
-1.4467952 1.3100221 0.9265524
1.1073735 -0.1382654 0.20850617
-0.44492885 7.7553716 -3.357924
1.5949523 -1.2351921 1.3918521
2.2539048 -2.0310059 1.1413789
-1.6754377 3.6975908 0.61118937
1.3906331 10.652035 0.66028243
-0.747398 7.9818106 -3.0865154
-0.61516035 9.201183 1.3043816
-2.0400558 7.201819 -1.4656734
0.10941015 5.2143326 1.0361631
-0.5190722 4.953388 0.74267864
1.0463166 8.026108 0.596949
-1.9899945 9.717623 0.31419224
-2.6408238 -4.32952 -0.14282954
-0.7725854 6.7778826 -2.891592
2.3082647 -3.2397614 0.8341101
-0.91466606 3.2682128 -0.40628487
-1.6657581 1.5726519 1.1365011
-0.18438008 13.059114 0.27029857
-1.597709 -0.991597 0.97618914
-0.13937229 6.164742 1.6522565
-2.2666268 8.793665 1.0550144
1.5219047 8.997799 0.9598775
1.1311281 9.565472 0.783587
-1.9197223 1.1576366 -0.060938165
0.19908677 5.252719 0.65390694
-0.56799257 5.3017206 1.4396706
-1.0136635 10.127865 0.15411666
1.687299 3.4061484 -0.15365839
0.79520905 4.884552 1.5870578
-1.5303495 7.056814 1.1572227
-2.411529 7.446638 -0.13056988
1.8841183 -1.3238778 1.0502632
-0.3408542 10.623638 0.5681132
-0.71671784 3.5747566 -0.51664007
-0.12452398 11.071016 0.9725814
0.22900322 5.5821686 0.86608493
0.48495305 10.124552 1.5238192
0.83856666 8.040728 1.0178182
-0.14230037 12.913698 -0.2123304
-0.076036885 4.175084 0.37021804
1.0370033 0.6925613 0.29915178
-0.5085838 4.3257623 1.6441581
1.606745 5.225871 0.49040347
0.8265183 4.455304 -0.259359
-0.22854191 12.319601 0.09817222
-0.6008475 8.332249 0.7679728
-2.3511434 8.373379 0.90526664
0.22356355 10.34373 0.2154533
-0.82839406 12.320717 0.35336277
0.15988746 11.028154 0.2608384
1.6080194 -1.6450294 1.2616724
-1.1213744 8.789811 0.1863618
-1.1896086 7.2250853 0.15351391
-1.1766493 7.894595 0.886847
-0.24084592 13.415852 1.0433204
-0.51055884 7.989068 1.7781935
-0.45280954 11.395854 0.10231827
0.119280994 6.3850336 0.16351244
-0.48130542 5.372202 0.673732
0.046607867 10.146715 1.4459603
0.23959063 10.633689 0.8791735
0.9412981 3.8419123 0.1558255
0.14025456 6.4395037 1.6856079
-0.1727837 10.318249 0.13909413
0.7304628 7.7225 -2.7678318
-0.24092469 6.570018 0.5034251
1.3790131 3.0934281 0.647117
-0.46443284 8.454384 0.3610422
-1.6913383 6.8117056 0.9093232
-1.0342135 1.8445313 1.2301531
-0.00022678761 2.8894286 0.44929957
-0.059957802 10.712217 0.22647443
-1.9396181 -1.2499846 1.1328092
-0.117455125 7.1306934 -4.136545
-0.3036853 5.811591 1.7412665
-0.6018989 4.17572 0.81789184
0.61648655 3.6957781 -0.31292874
0.9528285 7.3744173 -3.2816415
-1.9562149 10.619961 0.802884
0.2726648 4.7475443 0.057682045
-1.8453617 -0.3562563 1.2356253
1.5766804 10.272171 1.1559918
0.81887245 7.4650373 -3.6602616
0.80384827 10.226473 1.0902488
-0.4060741 10.857973 1.2226448
2.0140104 8.521635 0.2092335
0.6143371 4.9346056 0.13997924
1.3308783 4.473687 0.40489995
0.772738 4.2214146 0.117806286
0.23425424 7.627426 0.6510273
-1.7551737 9.009853 0.3090498
1.889149 9.524111 1.1616399
0.8797655 7.417945 0.23664308
0.86830914 7.892318 -0.20152748
0.114466265 11.275114 0.7228385
-1.8566062 3.547832 0.97707546
-2.8495364 -4.5808 0.5272875
0.74699855 3.4918637 0.51121867
0.3051232 2.891693 0.13564336
-0.8895111 7.544817 0.8434893
0.1710687 12.448076 1.0582044
0.92068565 0.017027464 0.72439575
1.5169587 2.8483124 0.36144412
0.101149574 6.0406666 -0.60761666
0.24450019 7.036153 -3.9988756
-1.1412845 8.171368 0.54387987
-2.1186008 -3.5627346 0.82446074
-1.3559349 9.423189 0.015723024
0.5159873 3.7071977 0.76678085
-0.8027588 7.149848 -3.1517935
-1.4093964 3.055657 1.2682464
0.87161875 3.5143137 0.9027481
-1.4531479 -0.74248517 1.3187253
-0.42196518 9.832731 0.42436612
0.24361572 3.1560273 1.4097619
-0.7683814 7.26776 1.1584904
-0.40595192 6.6182294 -2.8830466
1.5179014 -0.22247517 0.2687922
1.3685167 -0.49359807 0.031800367
0.7748152 8.917734 0.24702495
-1.5606577 4.4450626 0.17093837
1.1401892 3.3809276 0.49909824
1.7075086 7.19722 -1.3681686
-1.8175769 1.8695021 -0.19871849
-1.5814524 3.2551465 0.05879956
0.2787056 5.824706 1.2987218
-1.9891988 -2.7489805 0.94320834
1.2933049 2.138338 -0.41933215
-2.5484576 8.504593 1.1785359
1.0365872 1.0867798 0.1537995
-0.12861177 6.208502 -0.27868897
2.2922177 7.320978 0.19268665
-0.32858726 6.274376 -0.60002685
0.28055662 4.3187685 0.12383844
1.7871873 9.32646 0.3254159
-1.6465881 6.4737816 0.6240449
-0.09364715 5.5996428 0.066801324
-1.8934276 4.0023904 0.094830334
-0.9777219 12.953934 0.6601341
-0.7023852 4.276765 -0.570907
0.50524795 6.141361 -0.50465536
-3.003271 -4.5575695 0.1112289
0.61229765 9.885857 1.2475822
1.0025172 3.1321788 0.79574955
-1.9072526 -2.0503736 1.3881588
-1.2147436 3.978403 1.1589248
1.7341411 9.277662 0.8055421
-2.3109188 10.400711 0.67825055
-0.9853836 9.771248 1.6212082
-0.24785823 6.4475746 0.07378036
-1.8792522 8.346752 0.43559206
-0.8821031 8.555912 1.5678062
1.0265543 8.584589 1.0241337
0.4113738 7.522679 -2.752037
0.40448493 7.8912344 0.38097876
0.22067434 2.168539 0.40733767
-1.5372818 -1.1787362 1.355309
-1.0673976 10.252548 0.6827779
0.57294726 9.232315 0.9619329
1.4856639 9.628513 1.3162365
-2.275957 -0.62960434 1.2999029
2.2240477 -4.319292 0.53476965
-0.8524654 12.791328 -0.015368208
-0.30603307 7.6406603 -2.9721718
1.730722 1.2183948 0.5021375
-0.05702976 10.006628 0.7376456
1.1329634 2.898817 -0.52500385
2.6103516 7.0790634 0.3334273
-0.34335268 3.9681625 1.4473298
0.09450895 4.0027943 0.7593647
-0.112349674 10.0817375 0.3611834
1.1783199 3.9413486 -0.5051778
0.3838867 5.865414 0.6259725
1.7206066 8.547707 0.5639341
1.4262869 9.382162 0.15801206
0.010977553 4.955987 1.7146599
-0.41673434 12.011556 0.27723745
0.9994414 7.299985 -2.8483553
-0.83007866 2.1512818 -0.14112887
1.4373679 3.6608481 0.6226244
-1.7264979 5.8479285 0.52536285
1.7150092 3.2966638 0.74347544
0.29771727 8.761662 -0.18793096
2.3518038 8.5324745 0.14787632
-0.12563044 8.819 -0.19981495
-1.7943685 10.083855 0.38112795
1.5663381 2.4764946 0.18542232
-1.5129998 8.143361 1.1911125
-1.7794948 7.3219585 -2.2755089
-1.5841129 4.8282433 0.32792848
-0.63320506 12.06502 0.5613701
-2.1725714 10.374804 1.0521691
0.98713154 6.4135647 0.5195497
2.196838 -4.630146 1.5445175
-1.1595278 8.579214 0.70526886
0.9525241 8.068077 0.19526345
0.46927857 4.095236 0.83068585
1.724741 2.7007298 -0.1340284
0.9752759 2.4125128 0.5750725
-0.34930798 5.5938587 1.4322853
-0.06724048 4.298499 1.4959476
-1.1818132 8.844318 1.5849695
2.1823745 -0.74296427 1.1734334
1.7413044 -0.43241286 0.043960392
0.7200494 9.025677 1.3003776
-2.2641616 -3.8844428 0.46233934
-0.34532112 3.5813403 -0.43166226
