-0.54114604 11.736492 -0.1388703
0.90992165 1.0387182 0.45408595
1.4217513 -1.0997598 1.2702203
0.07584098 12.702059 -0.579512
-0.8569845 8.11051 -3.5009055
-0.5307567 10.718483 0.89531755
-0.18478361 12.816807 0.53763807
-1.8895581 8.004013 -3.1685271
0.48547584 7.8760357 -0.25055867
0.8952893 4.6402416 0.38658345
0.804488 1.919936 1.2694094
-0.97923696 0.9075062 0.3593166
2.1346087 0.64791393 0.7121036
2.3423977 7.477538 0.57563543
-2.0510616 3.1201186 0.21513295
1.0324705 2.7506123 -0.12402846
-1.4246385 10.0540085 0.6250787
1.6542268 -1.8519831 0.935182
0.41758585 7.657502 1.0353467
-0.8134028 10.925558 1.1638999
-0.35654235 3.1712475 1.0404179
-1.3013988 -0.42535973 0.66907525
1.3796039 6.668703 0.630579
0.036370274 7.437498 -3.630403
1.6707332 9.597937 0.9089979
0.2451523 13.450239 -0.297476
1.3887312 5.215288 1.1056194
-1.3231785 10.464848 0.8622838
-2.68858 8.169907 0.6670929
-1.8322284 4.9776907 0.69527817
-0.94087434 6.9598703 1.2867446
0.6942656 7.4609337 -2.2432842
-0.1311487 2.9851055 0.22989315
-0.20513317 4.6945534 0.72090113
1.1316903 8.390188 0.5419767
-0.681236 7.0062075 -3.4072886
-1.8118892 -1.8958764 0.98632777
-0.55509675 12.856073 0.36686867
-1.1700792 1.3993621 1.1242535
-1.1614211 6.96084 -3.0134988
-0.7892643 4.960866 1.4526536
1.1894913 0.4449947 1.2361255
1.9286668 10.026737 0.32726818
2.622345 -3.9238892 0.63730204
1.3863244 3.6609507 0.2880227
-0.95251393 5.9132643 0.10857801
1.2275362 1.4052755 0.45058465
1.4061334 -0.42405236 0.7334089
-0.291821 5.761101 1.095
1.5311961 5.949477 0.6260196
1.899265 8.876802 0.2927435
-1.5317523 -0.15542796 1.439825
0.5905825 2.2288275 0.58113325
0.29322433 4.76723 -0.6333703
-0.62067187 6.730385 0.6979604
-1.7435987 0.45618552 1.5238233
1.657929 -1.4209213 0.7909436
0.70180726 7.4175644 1.2831299
-0.79344237 7.8598633 0.15268642
3.003944 -4.6009417 0.22067845
-1.0702636 9.865114 0.4586141
-1.6757202 2.120072 0.32380027
-0.09975591 10.549133 1.3380389
0.53641295 1.9370589 -0.106701285
-1.412688 5.503626 0.7222158
-0.34612507 7.032893 0.46406218
0.3851297 1.4768124 0.40267628
0.74079347 10.529165 0.94916034
-1.3832669 1.6788821 0.90086114
0.8292973 2.0826378 -0.29948515
-0.8441366 6.4800987 0.052499443
2.7404318 -4.3681736 -0.3770839
0.0948506 3.988433 1.4720194
-0.30430293 6.9564095 0.83645
0.019759025 12.153608 -0.1005121
0.54655695 1.5555422 0.037500598
-0.4758358 6.347761 -0.20155802
-1.6585336 1.2167964 0.19055068
0.60325074 13.080864 0.3261063
0.39616656 5.0096464 1.3596795
1.1221085 0.95976543 -0.22857088
0.69500655 10.354742 0.30125862
-0.14630002 13.652597 0.68938696
-1.7658279 2.2837133 0.98822236
-1.4368198 1.8054643 0.49943906
0.76323473 9.390978 0.35677457
-1.201894 6.2273808 1.0173321
-0.87655175 7.2991695 -3.140996
-2.9244852 7.171809 -1.1460924
0.34782463 5.451396 1.2851715
-1.1891205 0.599918 0.2636432
-0.89766276 7.2031536 -4.1463814
-0.51258135 6.7644043 0.26327375
0.8742442 4.1882286 -0.52594066
-0.23508948 7.769678 1.2216825
1.1674175 8.637547 0.02383918
0.8607236 6.3239365 -0.22244039
1.0155478 4.521241 1.5003173
-1.2935684 4.2998505 0.70872307
0.7813357 3.193747 0.51569355
0.060492188 5.7804804 0.5069214
-0.002262772 4.1970015 -0.27072197
0.2866462 6.293865 0.84589684
0.5816859 3.087954 1.3496196
-1.247175 3.3287377 1.4435506
-1.3409185 3.4770675 -0.046320997
1.2072923 7.8119 0.916299
-0.078471676 3.6993046 0.46907943
-1.1394975 8.298719 -2.517879
0.20564303 7.7303066 1.7488546
0.3962633 5.599166 -0.115455225
0.62221277 7.830454 1.313421
0.2256887 13.591448 0.11119309
-0.016195364 6.997198 -3.0739174
1.8087528 -0.0552883 1.4277694
-0.46210796 6.1395626 1.8668873
-1.1788497 5.45899 1.0680888
-1.6939981 1.3387649 -0.22180742
-1.2400203 9.502321 0.34489936
1.6844409 8.6001835 1.0460145
-2.9284625 7.827384 0.47389784
-0.8157332 11.058115 0.74011266
0.62857604 4.619525 1.3246584
-2.1346507 0.7360234 0.94581175
-0.53851545 5.7095194 0.1106742
-1.3056371 5.8484497 0.87067795
2.2642083 -1.3550243 1.1573163
-0.66433966 2.0416303 0.836046
-0.1969792 6.880657 1.2442322
-0.8261658 5.243167 0.1551694
-0.7162012 8.237865 -3.1608596
-0.78354 7.47499 0.38532257
-1.2803361 2.6300316 1.325923
-1.6075363 7.26355 -2.5262294
-0.6399157 9.603161 0.94287443
0.124243975 10.380323 1.038096
-1.8260479 4.608592 0.8496312
-0.354851 7.0648375 -0.3940931
0.04305274 10.451294 0.5855719
-0.77581966 6.921506 -3.0334148
-1.5636613 3.3220243 -0.32583493
-1.688683 1.9160471 1.1114223
-2.3860335 -0.65052664 0.9426502
-1.0770295 1.0057054 1.1685057
0.1684646 9.270102 0.95179665
-0.38969254 10.918615 0.16884929
0.6567366 7.71795 0.09663774
0.06765455 13.2211075 -0.06259823
-2.160437 2.961956 0.5343274
-0.5845368 8.381508 -3.7031755
-1.5238638 7.75906 0.14201051
-1.3724198 4.9137306 -0.33592308
-0.45374846 12.450449 0.49550164
1.2476006 3.4511762 0.90817845
-2.0100813 2.4712381 -0.078750074
-1.0191429 3.8966012 0.541986
1.219049 5.6976404 0.54436624
-1.034095 9.8515625 0.8564364
-1.1328583 8.361441 1.2015271
0.028861385 3.391542 -0.36487472
-0.8246186 13.38464 0.54170686
-1.02373 5.781825 1.5900133
0.81362045 1.6607435 -0.2298285
-0.03221909 9.126942 1.3102641
-1.1099832 4.6908197 1.2445943
-1.7494118 7.5798674 0.6624284
1.1548259 8.244909 0.95204735
-1.2071552 6.1196814 1.4448195
-1.0138221 4.6791983 -0.1258375
0.6471149 8.236921 1.3075743
0.20276254 13.217552 0.29723155
-0.44973224 4.9902296 0.05005578
-1.1027203 9.842678 1.2371273
-1.3243613 6.5143776 0.4094652
0.8185425 9.733234 0.08760521
1.4991453 3.1474576 -0.32038808
-1.340677 8.199505 0.8771874
0.37121743 10.66593 0.4246431
0.5388684 1.1216934 0.2339617
-1.4970729 1.2536068 1.3436327
2.3090577 8.416218 1.0423717
-0.045972116 9.6115055 -0.07071249
1.0637882 7.1656 0.5456393
-0.05748431 7.5652637 1.5522323
2.046105 -0.40818304 0.4626431
2.2429194 -1.5694511 0.7620317
1.4150169 2.9133291 0.016332548
-2.5209556 9.633665 0.5947
-1.3633273 10.001232 0.21987262
-0.88903713 7.3416586 1.573673
-0.86194444 3.8354502 1.1913092
-2.2595453 0.3903334 0.33699542
-0.04004267 12.409334 0.5472126
-0.0005223851 9.755121 0.40457422
-2.0980678 7.679203 -2.9337401
-1.5419903 0.29372215 0.92817724
-0.31378067 6.6979065 -0.50033236
-0.57074 2.323327 -0.07038489
-1.9804435 0.34742165 1.133677
0.2789734 7.5530453 -0.007641063
-0.6730194 10.073723 0.8123332
-1.7668189 0.9824929 1.2001617
-2.6761885 7.6825094 0.15419835
1.0640845 7.030697 1.2732446
-0.45099813 11.781307 0.68433094
0.68701506 5.2351904 1.6779685
-0.47648323 2.821179 0.400061
0.17978668 7.2500906 -2.854506
-0.40629542 2.4188857 0.25033182
1.9635811 1.4262843 0.27309185
0.32603693 1.8713021 0.23717836
2.362342 9.004532 0.93234843
-0.15109795 4.8814697 -0.6399492
1.7386565 2.1187258 0.98075914
-0.6563405 7.4187164 -2.5536995
-2.9777899 7.6363897 -0.44930148
-1.4166906 7.559538 0.42321604
-0.678583 12.042582 -0.3538314
-0.9385984 10.628637 0.9046664
-1.3718045 -0.36139983 1.1528661
1.8961222 7.5289288 -0.56228757
1.5566356 0.58115673 1.1341455
-0.51275957 7.373617 0.67507696
1.0114572 7.1441593 -0.1295732
0.27920586 5.308569 1.6633873
0.62892294 8.136267 0.1319567
-0.0012200424 4.7589293 1.460135
-2.1284165 0.69611895 0.13483748
-1.0846817 2.2974658 1.304817
-2.063447 -0.77046645 0.965191
-1.0208437 3.5732203 0.8911959
-0.2839241 8.072371 0.824653
-0.35858798 8.516014 1.0715704
-1.6619081 10.565161 1.0996509
-0.48575568 7.546994 -3.234682
0.39818627 8.950754 0.90968406
2.0884786 -3.82232 0.76082134
0.6989089 3.8287 1.1649601
0.45172936 6.3824015 0.08336946
-2.0042882 3.5410604 0.17299801
-3.0934224 7.326167 -0.5013087
-1.8770998 1.2654715 0.4993428
0.96234727 8.753647 0.67435336
0.9321219 5.564415 1.5804434
1.1001952 0.044352934 1.0947571
-1.152039 3.0801191 0.021686882
-1.3648498 6.8030624 1.1061606
-1.9333537 10.45997 0.4675761
-1.9665351 7.1395445 -3.470787
0.078832895 9.555805 1.2777617
-0.68460417 12.802315 -0.35609496
-1.5651388 0.8424809 0.19855517
-1.010318 6.594721 1.1412513
0.12021148 5.7054834 1.6816809
0.91253066 7.256199 1.6116958
1.9854329 7.3135757 -0.18841559
1.2220371 -0.095948875 0.58539
-0.11702308 11.654627 -0.6905649
-0.13377565 3.6107097 -0.09398031
-0.24263814 6.161134 0.41813427
0.2623579 7.2599554 0.6518923
1.2186947 5.2678823 0.71948755
-1.9560213 8.624237 0.7421383
-0.45956898 13.140748 -0.4419493
-1.4713368 5.543292 0.3205192
0.8420924 2.9890633 0.117739335
1.4496839 2.7270527 1.1126838
-0.4994473 7.6225834 0.03177605
0.47906196 13.246134 -0.058586136
-0.18880215 8.343424 1.6024914
-1.5779395 3.3740597 1.2199042
1.2626052 9.766993 0.18718886
1.9068215 -0.7737875 0.35127681
-0.8586061 6.9123936 0.06758961
-0.5369415 11.37718 0.63252723
-2.0460076 9.413757 0.4966054
-2.6008253 8.938223 0.84237754
0.28740406 7.3180532 -0.3649276
1.0161829 7.846648 1.3129487
-0.3541581 7.4282846 0.33496428
-0.7020856 4.7964954 1.1071169
0.9996134 5.254122 0.04718738
-1.1134 2.6245246 0.57909477
-0.89696145 12.653999 0.43625113
-1.1121798 4.142313 -0.46113753
1.1854322 3.1011734 0.26459944
0.34220284 1.8450336 0.63116217
0.8422806 7.623019 0.96141946
-2.6203756 7.0631 -1.3468926
2.270177 -3.9430242 0.37868518
-1.7391431 7.217657 0.78296936
2.6783342 7.398365 0.39571935
-0.8518392 1.2652025 0.9159205
-2.413118 -4.5855646 1.3134828
1.4906905 6.3067446 0.83327603
-1.6818569 -0.62842345 0.9442315
-0.26318485 12.485376 0.8443892
0.86786497 2.8674912 1.1482687
-2.925417 7.118783 -0.2301215
-1.4534729 8.893835 0.80407083
0.7308345 9.825247 0.49485487
-2.1423616 10.196484 0.32107943
0.09694831 9.392675 1.639401
-0.7703209 8.444902 1.195513
-2.5220656 -3.9093223 0.7380309
-1.5492632 6.4359064 0.9838357
1.5332344 5.5056343 0.8002453
0.054457977 10.892303 0.5982404
-0.93377805 3.509141 -0.12127523
0.4241926 2.6235046 0.6012291
-1.8737655 -1.4383638 1.501878
-0.33120066 13.579969 -0.35338897
2.0465837 10.276949 0.5870575
-1.1267331 5.7975883 0.49159968
1.0159404 0.77156353 1.1386447
0.17132837 4.8696127 0.72165227
-1.401042 7.8538704 1.2556384
-2.6022263 7.099064 -0.9343257
1.453558 0.92391896 0.120200396
-0.13196397 8.800993 0.4271254
-2.2392368 -2.8120036 1.1929173
0.28536946 2.4665418 1.149914
-0.9359237 9.171581 1.3136821
-0.014715875 3.977994 0.07981323
-0.72358906 5.339098 -0.48769903
-1.7472918 9.809229 1.2846766
-0.12381759 8.172834 1.238323
-0.84835947 4.32868 -0.17907506
0.24684107 12.952572 0.5250381
2.5886579 7.1925974 0.04859443
-2.2509613 -0.018669397 0.13285184
0.8489417 8.073391 1.6442685
0.6075177 2.8714232 0.3532349
0.4624974 5.5444746 0.5667919
-0.62288606 3.19906 1.294297
-0.6707804 8.543545 -3.3900433
-0.6522683 5.859951 1.4059763
0.6052873 6.542469 0.7517835
-0.26350415 7.8297358 0.3048197
-1.9753449 4.639471 0.47155958
2.2427902 7.935938 0.7463267
1.907752 8.8040085 0.79564285
1.2781184 3.7932463 1.303024
-0.18137683 11.927904 -0.3270132
-1.7620937 9.898841 0.91661596
-0.14447191 5.553336 0.7980895
1.0462787 1.582572 0.0883851
-0.36146528 2.870788 0.8008833
-1.1789832 0.58351636 1.074327
1.4563668 7.0615644 0.6389437
-1.3311231 7.188796 -3.6742148
-0.55732214 7.1330013 -2.8055782
0.20800838 7.9825153 -3.0496726
1.8587549 1.3594456 0.8208699
-0.5282444 3.527979 0.47741944
-0.62739384 9.126743 -0.18458548
0.5714896 7.114915 1.6740546
-0.19137207 12.068413 0.61778843
0.123947024 12.378578 0.1857779
0.7525747 5.684333 1.2769783
-2.0595055 -1.0888877 1.5291958
-0.34594303 6.582672 0.98897254
-0.063289315 8.198616 0.120382935
-1.336443 7.2572765 -2.8280044
-0.5818261 8.766678 1.7026403
0.15225288 5.961776 0.11986321
-0.77496076 9.19372 0.9372643
-1.1484945 8.023273 0.18187279
-1.7017622 0.60991275 1.0791879
-1.8338284 4.6201153 0.09206906
0.19540435 8.6590805 0.633359
0.56596684 12.890581 -0.055471227
-1.4175708 6.803293 -3.703596
-0.7868 5.5265427 -0.096161544
-1.9178922 1.3218453 1.3000548
-1.7513678 2.8320403 0.42010498
-2.7702975 8.507032 0.49475247
1.2144537 4.8656816 1.351527
0.43884397 10.354191 0.6823145
1.8416752 10.480745 0.8264003
-3.0876417 7.549656 0.2701363
-1.0208073 4.862418 0.8936447
1.0063283 10.062374 0.27396834
-1.9856346 -1.0527229 0.7260463
1.2758553 6.791157 0.31448382
1.1454577 10.780283 0.7770537
0.7342596 8.2079735 0.53894544
1.2905066 3.4161677 1.2611187
1.5548246 3.1575737 1.049269
0.021740347 8.369984 0.9181056
-0.582896 7.524441 -4.1891203
-2.2427692 1.8366027 0.46249032
-2.7947598 -4.5498285 -0.7222611
-0.75838995 9.086256 1.6673937
-2.1423526 -2.4165306 1.327287
1.0134244 10.090069 1.4922338
-2.093453 3.8648791 0.4522922
-0.31403118 12.830425 1.2427721
0.9488647 0.41848075 0.884958
-1.9837596 -3.9317803 0.825181
1.3936875 4.708452 -0.18205202
-3.0138621 7.4454956 -0.8690424
-2.1744337 1.4787126 0.3078882
-1.5499 3.158874 0.7234764
0.6026739 4.5584784 1.7181873
-0.9015376 3.411711 1.3421342
-2.308309 -0.0015582708 0.8804425
-0.48644215 8.478495 1.4213943
2.1720877 8.630201 0.6014981
0.89990056 5.0697403 -0.4094926
-1.2745323 6.6032534 0.7635405
-0.11315632 13.766623 0.31076217
1.1271427 4.2348356 0.9177763
0.028113775 5.630768 -0.6086589
-1.6531312 2.5561533 0.74459827
1.1566193 4.9466677 0.9604769
1.4921052 10.224079 0.7298943
-0.785728 5.5850296 0.37950748
1.0907118 8.762194 1.4274008
-1.549742 8.595737 0.17729229
-0.9277555 8.282267 0.8590225
-0.4400459 2.1902285 0.578791
-1.1731243 5.555133 0.039921574
0.3701033 3.0237322 0.64505136
-0.62062955 6.4072104 0.42487067
1.6137636 8.924635 0.54443765
0.2075465 3.6127725 1.5036409
0.59065986 10.001541 0.85822177
-0.1117329 7.324689 0.6919862
0.07890709 7.9362373 0.9272418
-1.9110928 -0.72848094 1.6239693
-1.175585 0.23644999 0.504259
0.0891974 11.460974 0.043379903
-0.9657668 3.477734 0.5606307
1.0406373 7.4862633 -1.9989891
-0.7650242 7.8249264 -2.618857
0.28374815 9.9387455 1.1555927
-1.4758887 5.3029833 -0.21395522
1.454952 9.783625 0.5692258
0.47000915 5.959429 1.0457368
0.6816852 5.3112335 1.3247864
-1.04287 10.256687 1.1140413
1.1877306 -0.8274571 0.291471
-2.1412864 -4.589118 0.9360249
-0.22605076 12.997482 0.9052676
-1.0757673 6.794304 -0.24023694
0.07316376 5.1866016 -0.63169694
0.5763252 1.1362493 0.6561457
0.22844133 8.43939 -0.18998301
-1.5621507 2.1016111 -0.28619468
1.2918091 4.9056168 0.5543406
0.21774659 6.5654736 0.5331645
0.22500017 9.054062 0.55798745
0.49582416 6.020074 -0.11989245
1.9904177 1.8779585 0.40196747
-1.9667275 6.9282837 -3.1387358
1.7939067 1.075232 1.1248591
0.89979386 7.791319 -2.1070595
0.12851366 4.2066536 1.1255193
0.44780183 9.216257 0.23632142
0.8684734 -0.7467997 0.59643435
0.48976403 13.421825 0.298419
2.064908 -4.142296 1.0652349
-0.7238989 2.4364848 1.193847
0.6368824 7.032855 1.2887387
1.9010267 7.2399216 -0.996112
-0.48543543 2.4396114 0.9143839
-1.0506842 2.750204 1.0014493
0.9112264 4.822546 -0.05761859
-0.8935101 8.228422 1.5640819
1.0780969 9.596819 0.47112513
-0.15194431 7.961255 1.6003072
-0.19763952 7.005582 -2.6862278
0.29572695 12.620214 1.070014
0.06605257 8.600208 0.1452409
1.0864108 3.809061 0.57021046
1.2545583 5.6732492 0.07240875
-1.8547797 0.5063746 0.6747614
-1.093534 7.3045454 0.57487607
0.46082342 4.4039726 -0.5302471
-0.4291494 10.032266 1.1313009
-1.88567 2.4015708 0.5211097
0.9105896 2.3048897 1.31143
1.1477542 0.17626324 0.053321682
2.0124235 7.592759 -0.88708997
-2.3064394 0.036010392 0.5116832
-2.2282462 2.5620356 0.5648171
1.2240887 1.5000201 0.8275572
-1.1585702 4.064788 1.5661061
0.6020211 3.636362 0.114044085
-0.55141485 3.8213844 -0.54282975
-0.05597514 13.652443 -0.12621489
-0.7142683 3.0392709 -0.015196547
1.6845531 -0.9352592 1.4604797
-3.1235838 7.451147 -0.1066712
-2.0788774 -1.7954416 1.4139328
-1.5919056 6.164627 -0.04990393
-0.079115 3.799674 -0.4750504
1.5018802 8.559902 0.28539473
-1.289768 4.7231073 0.63396585
2.0087829 -1.2643771 0.6361873
1.1124713 6.616701 1.308348
-1.6703703 4.0035267 0.4715696
-1.4999325 9.00997 1.2690742
1.6843262 9.708853 0.27286035
-0.5419972 8.1205635 1.1077611
0.3713146 9.240665 1.3025451
-1.302244 8.310656 -3.789328
0.60949504 3.507084 1.4946518
-1.1485507 9.720625 0.03052549
2.2182703 -2.082231 0.76185846
0.40932024 2.5146737 0.23545957
-1.0348446 7.495596 -2.5442772
-0.1113144 4.76663 0.039321207
-1.0515552 10.207865 1.5145922
0.05906392 7.604497 0.32554865
0.58939004 12.741659 0.3138852
0.63066006 7.2704144 0.058771066
1.7276449 4.0003357 0.8190321
-1.2467635 8.043306 -3.5772204
1.2245 2.2604017 0.32957256
-0.84167683 13.181784 0.9250411
-1.3905809 10.086821 1.0155468
-0.9554942 7.1637 -2.7274218
-1.5092351 2.31562 1.2760198
-1.0979519 3.089294 0.6659728
-0.20677626 11.470978 0.7886267
1.2328453 6.219651 1.1270728
-0.31396335 13.285479 -0.08359502
1.0733404 9.429102 0.046951383
0.89802444 1.5857952 1.119484
0.91546166 5.07129 0.38031518
-1.382431 1.9994764 1.351233
-0.6510068 3.4787831 0.9680029
0.9465183 4.612342 1.0837007
0.72533345 1.8284461 0.7816764
-1.9300466 3.158361 0.7279177
0.8409698 5.3906174 0.6214613
1.0393741 10.729937 1.1590536
-2.6228375 7.1602783 -0.46728277
-2.2996016 2.1879845 0.65465856
-0.92589724 4.474759 0.93139994
-1.0433137 7.783387 0.51795316
1.1441038 6.737379 -0.04536809
-1.5895617 4.5426416 -0.24362966
0.69595325 9.366314 -0.05878441
1.3798487 7.5856056 1.1956358
1.5548894 0.68860626 0.43343884
-0.4550972 5.434968 1.8799531
-1.9767048 -0.6077466 0.58828795
0.061496176 4.602331 0.3919326
0.8839532 8.472155 0.26808625
0.39422798 8.816534 0.27965873
0.2269296 7.036169 1.385036
-0.25574154 5.975499 0.11112352
-0.34698182 9.554754 0.24482703
1.5264897 7.467308 0.8169652
0.50538623 2.8170586 1.0023582
0.32545668 5.1810646 -0.08518945
-0.337633 8.900038 0.1127827
-1.4770215 2.7357259 0.020703726
1.0758736 6.4854946 0.8566513
-0.9600158 5.5623665 0.7553061
-1.2552886 5.9915 -0.16645354
0.20273253 7.3195677 1.7473288
0.46506602 9.149208 1.6748335
1.3314316 8.010906 1.2819092
0.8009907 9.654409 0.860252
-0.13395521 12.342098 -0.43739295
1.5035036 0.26981068 -0.18300736
-0.9606519 8.487082 -0.2166974
0.40355814 9.643105 0.32543033
-1.3342264 7.9288654 -2.9618325
-1.7286375 9.770327 0.5251632
-0.28434044 9.9227295 0.7582501
-0.6248424 7.89161 -0.2436781
1.0481772 9.039469 -0.02870658
-0.1745789 12.63039 0.15740749
-0.23902646 4.891876 1.1065345
-0.08932863 7.2838326 1.3096626
-0.41340208 4.5710726 -0.6247493
-1.918746 -4.610964 1.3640263
-1.5690491 9.722424 0.17003137
-0.020852584 13.202887 1.1737416
-0.73360765 2.6406937 0.11788611
-1.2479038 4.316764 -0.06380449
-1.1305418 10.728149 0.55265296
-1.0565441 6.959285 -3.422368
-1.7491679 3.7135048 -0.20146635
-1.8495324 9.072985 0.69053435
1.4795034 9.901855 0.98202896
-0.76608646 7.072605 0.4153732
-1.4571326 2.503838 0.41911268
0.48039252 3.2825127 0.25965333
0.15343624 2.7661042 0.9276602
0.73446596 6.199239 0.8016881
-0.93507075 4.1107635 0.16617924
-0.95964205 8.968983 0.608871
-0.7923912 13.138685 -0.1336908
-1.4105003 0.97807527 0.5321878
-1.1429787 5.09313 -0.04157356
1.590874 4.574562 0.14347938
-1.6982098 0.25321323 -0.0943843
-0.7071487 7.8093777 -2.2331762
1.3601127 6.3327904 0.43817264
-0.40281332 4.848274 1.507837
0.43982637 1.4962506 0.7617172
0.023352416 3.4374776 1.1847415
-0.94381726 7.6647806 -0.21708846
0.4902112 10.288328 1.1228261
-0.4084059 6.8763237 -3.7506819
0.22961038 5.492976 0.22600752
0.7710624 10.94133 0.8754475
1.1135085 2.5070024 -0.41710037
1.9380331 -0.0817212 0.29869556
-1.0297177 0.9608493 0.7694137
-1.6614189 2.9160504 -0.30803812
1.6056645 -0.8193244 0.08010328
-2.657414 8.52158 0.1373502
-0.76433814 12.413023 -0.15776405
-0.96483505 8.009598 1.2049851
0.5223644 7.9130707 1.6726959
-0.96378624 2.7234497 -0.22164553
-0.5811801 1.7982852 0.52516973
-2.9233088 7.8015223 -0.010008182
-2.1966257 0.35248518 0.74932325
-0.060139358 7.047099 -3.4684954
0.26495546 12.144592 0.5603471
0.83632183 9.353552 1.6343384
1.7346561 7.567998 -1.176724
-0.4554389 7.6599455 0.9351704
0.5311191 5.6516495 1.6436412
-0.7890178 13.4811735 0.16911134
-0.004111235 7.2009306 0.30026186
-1.0222266 3.0215473 1.3758483
0.1415829 2.6168218 -0.07488282
1.7392926 1.4044337 -0.041451678
-0.4299639 5.376629 -0.14141563
-1.3287191 7.8790827 -0.17419362
-1.712672 -1.7030048 1.2852049
-1.3514206 7.262082 -4.0690765
2.1870213 9.234602 0.2645278
-0.2513284 5.91385 -0.5848217
-0.65739894 7.5321054 -2.9110188
0.6535797 3.958702 0.45409644
1.2238784 5.32386 0.34990698
2.1514711 9.736549 0.9821397
3.0978708 -4.778721 1.5864944
1.9642429 -1.9552107 1.0368981
0.20168892 6.91698 1.753284
0.49012494 8.756926 1.6807489
1.4010608 2.763317 -0.37133622
2.237401 -2.9487844 0.8443177
-1.8050795 1.6661711 0.33719534
-1.8974123 7.584015 -3.269431
-1.2493203 7.2217712 1.4351869
-1.4857197 0.26573718 1.3501129
0.08483799 12.254269 0.95576036
-0.8295429 7.158559 -3.7142568
2.098885 9.629187 0.3125943
-1.1293344 7.2130375 1.0288522
0.0006288324 11.991501 0.2974481
-1.4020231 0.25225854 0.1893766
-0.7716299 7.5585556 -3.484735
2.2745328 7.155128 -0.35494208
1.1652174 1.7783332 -0.3079257
-2.3996549 8.242788 0.45119232
-1.2728779 8.680534 0.49946707
0.1780467 2.4056768 0.74910307
0.6171859 6.0654774 1.371078
-1.0091882 3.7150846 1.5501871
0.26488876 8.334093 1.3670335
-1.0581026 1.8471501 0.69985354
1.9410975 0.67798936 0.37541914
0.9219909 6.855712 1.6012518
2.519712 8.630783 0.8415376
-1.324758 9.28649 1.3862348
0.7802371 10.662016 0.57441175
-1.3653591 7.047414 0.7659596
-0.7571986 8.728052 0.8856369
-1.7206199 3.2436848 0.3880728
-1.2050505 6.931282 0.44249678
2.6353326 -4.0370092 0.25627118
0.3972414 6.892371 -0.40172637
2.231072 -1.1331508 0.8647634
-2.6574168 -4.264468 0.6660044
-0.27013278 8.6698475 0.75648296
-0.86146975 3.1416645 0.984679
-2.0803866 -3.5242982 1.2138367
-1.776053 8.837742 1.0439441
-0.8734375 2.6920657 1.3746164
2.104416 -3.1019683 1.1453881
0.17373428 3.6270127 0.1429778
0.75712645 2.489983 -0.39523345
1.5731025 1.4103312 1.1533256
0.5049417 9.390934 0.66775
-0.34513277 4.515152 0.3685788
-1.698344 4.9449673 1.0999727
-1.4088998 0.920272 1.1758685
2.736236 -4.6513414 -0.14626577
-0.27995968 3.2010174 0.56915104
0.23706353 3.8345737 -0.23440814
0.035795502 8.086653 -3.3967543
-1.840651 -0.35022658 1.5929663
0.30988622 8.332638 0.32058078
-1.159816 4.9674797 0.34257084
0.5424075 12.428635 0.46523225
-2.6720295 8.892707 0.46437025
0.8535273 1.3941898 0.7582123
1.3064029 0.6803029 0.8109219
0.8098898 10.486502 1.4038777
2.0394497 -0.11934739 0.73815536
-1.0161955 7.5370054 -2.1789446
-0.58643067 4.1135254 0.46458364
1.9420297 2.2650528 0.30438608
-1.7492907 10.202833 1.2277632
0.19652978 6.1637983 0.44697958
0.7191191 5.488661 -0.42912316
0.86171293 4.9258747 0.72939205
-0.88011205 12.768953 0.8851534
0.7921616 6.7642975 1.0120406
-0.33817726 9.123529 1.6036241
-0.9461235 6.7871923 -2.5564938
-0.93875885 4.3056087 0.55968976
1.4847462 -1.4867101 1.1379378
0.028268408 6.595068 0.9834707
1.2679875 3.7614007 -0.034736212
-1.3806283 9.65276 0.69838226
-1.7067893 6.880041 -3.4867492
-0.55285776 12.518541 0.119734704
-1.8369727 0.6280422 -0.16931966
-0.6786169 8.865898 1.2820594
0.12042846 3.5716481 0.8282318
0.39580226 8.121674 1.0599599
-1.1456718 8.170763 -3.2144065
-0.12999672 7.3325586 -0.4069355
0.33928597 3.6648626 0.4611137
-0.8083396 7.346922 0.03734529
1.8159096 9.876505 1.2073445
0.43116403 7.449645 0.34158778
-0.3844521 12.213291 -0.15589643
-1.4263823 2.8351784 0.81955564
-1.3200207 6.908345 -2.540989
0.22375116 7.315564 -3.2693708
0.7308539 4.6991386 -0.5556375
1.9102938 -0.7095053 1.0408795
-1.1224883 3.6934142 0.19309288
-1.1089702 5.3482 -0.3249719
-1.7157924 7.2286234 -3.117878
-0.3131588 3.9055238 0.7030642
-0.40433884 13.702494 0.061370715
0.6721021 9.02799 0.58715117
-1.9660838 -0.20776784 0.46453744
0.8999016 5.95823 1.0502145
-0.98485506 6.5726147 -3.256753
0.79145014 -0.30501723 0.52051055
1.4455647 8.983002 0.18693551
-1.3697534 3.7003021 0.45844907
0.06534937 12.73824 0.8229797
-0.42195243 7.1290483 -3.179347
-0.9214089 13.110378 0.22055987
0.39802074 12.132576 0.18064022
-1.266741 -0.091248855 0.83178127
0.67383325 5.2283688 -0.15311897
-2.3212485 -3.8360038 1.0913353
0.8215525 4.0044193 0.802791
1.0811968 5.212865 1.4432933
1.422873 10.005285 1.3875163
-1.3607986 2.2873983 0.048430115
-1.990603 1.4184527 0.011257339
2.0492377 -1.6134152 1.3684309
0.68970287 0.38777703 0.52769935
0.22670984 11.9302025 -0.48487222
2.3748074 -3.642735 0.60914814
1.4520464 -0.16320547 -0.07932699
-0.24961299 8.063847 -0.28181183
1.6707983 -0.060354166 0.63160455
-1.1779401 2.0145512 -0.25810367
0.15650865 6.2306957 1.3065543
-1.4961979 5.6973705 -0.15904334
-0.90453935 9.440462 -0.07882652
-0.7439276 1.608083 0.21193972
-0.9892988 8.486567 -3.5993733
0.7696215 1.254278 -0.11527458
1.5308101 4.9986715 0.088986754
-1.1864405 1.9261916 0.17007226
0.17701536 4.5802326 1.8158615
1.2486062 7.6823454 -1.8292382
1.5051203 7.611706 -1.4819953
1.627384 7.346195 -0.8511574
0.20424566 4.1054077 -0.59186184
1.08114 5.4964 -0.2521748
-0.7275028 10.811504 0.45480746
1.0749102 3.1501546 -0.17228767
-0.7258371 6.55357 -0.36381823
-0.6721251 7.526073 -3.8583074
-0.5717541 2.0339503 0.21199027
-1.3149717 6.1649914 0.614105
1.7223275 0.6589056 -0.024456955
1.1529741 1.9724717 1.3024235
-0.6269616 8.377762 1.7647929
-1.0769928 5.1218615 1.6316278
-1.3221285 2.4385366 0.91559327
-1.5439286 7.343128 0.08400956
-1.6748295 4.954689 -0.06983945
0.63106894 2.190754 0.17632934
-1.6166992 8.504866 0.9402387
1.2148685 3.0433254 1.1559987
2.62565 -4.6084547 0.29299724
-0.48136705 9.532093 -0.11421418
0.42750686 9.586267 1.0796907
1.8976653 0.29062063 1.2836814
2.1502037 8.7188 1.0992897
-1.6627045 6.510783 0.23203114
-0.17091528 11.601463 0.3797583
-0.6840698 6.643921 -3.5582943
-2.8634195 8.153465 0.29152018
-0.8635595 1.6926475 0.96391857
-0.113092855 6.574316 -0.18174726
-0.89668524 4.744501 0.5597652
-0.063679576 13.346446 -0.43721327
-1.6435864 -0.26218623 0.76196754
-0.30637926 6.7692413 -3.0112114
-0.8077235 9.56856 1.2965946
-0.8773606 2.019827 0.4440899
-1.2072108 0.92942226 0.007872371
-1.0992997 7.3683815 -3.4377666
-1.404666 0.7385595 0.83097875
2.4633965 8.06048 0.3151447
1.5349398 -0.7262863 0.43031353
0.80299115 5.9749413 1.6545904
-0.22568628 11.505383 -0.23877016
-0.5932816 5.91817 -0.20212698
-1.8202465 7.943597 0.54497135
-0.83027875 4.8450356 0.15480784
-1.5322949 6.080179 1.1824968
1.4076004 7.1445246 1.0864139
-2.2668633 1.3943434 1.051261
-0.76203 6.851487 -3.9276435
-0.52387834 13.230751 0.24529243
-0.050611112 7.4425797 -2.5962825
1.0776267 -0.49568725 0.37033492
1.2458172 5.5308046 1.2474568
0.7075006 3.2729115 -0.1355466
-1.5270927 8.368208 0.5426488
-2.590814 8.103401 0.08452767
0.1017078 3.297 0.46274132
-1.5206676 9.260422 0.9445596
1.271071 9.012629 0.6924739
0.54229414 6.5391855 -0.35676992
1.2310846 10.402498 1.3383534
-1.311058 -0.12425187 0.41424912
-2.322424 -4.5922165 0.46524382
-1.0071013 6.52919 1.5426221
1.3564236 2.4588041 -0.03088649
-0.6195495 4.72991 -0.2734326
1.4034474 0.6794783 -0.24090642
0.367899 11.038204 0.9712815
1.4806345 1.5643816 -0.27059573
1.4311202 -1.1130788 0.91347957
2.2856874 -4.3154974 0.30771804
1.7537487 -0.0002904052 -0.007086252
0.59469914 4.5350876 0.091433704
-0.34953636 7.839347 -4.0130444
-0.47557217 8.082684 0.07701498
0.19019032 8.129864 1.7250193
-0.4873315 3.8375635 1.0703769
-0.95606685 2.298523 0.19738069
1.682373 0.86290133 0.80149543
0.5595697 7.507799 1.6818285
1.6674274 4.813259 0.41085094
1.3360665 2.2979116 1.1259804
-0.13920045 7.3903646 -0.040841162
-1.3305926 7.4778976 -3.1506996
-2.688334 -4.1888647 0.29170626
1.7117176 2.8752136 0.81506085
-2.0306497 -4.2585716 1.5624714
-0.2331908 7.485676 -3.962183
-1.2955587 -0.6716163 0.9174309
-0.88731 3.3258944 0.23609596
-1.6270902 -0.40429813 0.366652
0.6489389 6.6590033 1.3455646
-1.8963599 5.0234356 0.29222798
-1.1389534 7.894951 -2.6144123
0.8099129 2.5287523 0.32638347
-1.3064492 4.358424 1.0772605
-0.27793068 5.0435925 -0.30232638
-0.67902195 12.044502 0.055907294
1.5371358 3.2648892 0.32536364
-1.3311367 7.4779396 -0.18499875
-0.8297219 1.2404807 0.45712912
-1.1383935 5.3799715 0.38371706
-0.9911852 6.869956 0.81900156
2.5574684 7.609915 0.1474098
-0.31520832 5.3574057 -0.5724933
0.09866156 9.419085 0.5883055
-0.943208 7.101548 -2.3020544
-0.38834196 12.76836 -0.6053622
-1.4506307 1.5500565 0.14309835
-1.1322956 2.6376572 0.13985473
-0.5874529 5.6936007 -0.5140649
-2.3089867 7.3768806 -2.7689037
2.177402 -2.6977186 1.2032692
-1.6486657 4.512144 1.2116244
-2.0617867 1.8445096 0.11190632
-0.611789 12.431862 -0.5301579
-0.63163793 5.8026915 1.7827585
-0.7919028 9.589252 0.27961314
-0.601938 5.740714 0.74652946
-0.04835429 6.7647915 0.2654392
-1.1092169 9.457718 1.0438092
-1.675694 2.502987 -0.26943725
1.8660388 -2.2539191 0.86236763
1.9095149 -2.3360229 1.2351034
-1.7222087 7.6540747 -2.5769868
0.7442405 3.96318 -0.1929233
-0.98197865 6.2231274 0.4128102
0.6579548 7.1458187 -0.29865527
-0.7073051 9.840351 0.00050927454
-0.500195 9.848917 1.5177536
0.42944998 3.982679 0.11232351
-0.8965832 6.172431 -0.2567191
0.9397048 5.2993526 1.0301328
0.8168992 10.230278 0.6325673
0.9000205 6.9524746 0.19975436
0.7873961 0.052386954 0.3821352
-0.24003845 8.14156 -3.7156582
0.97318053 3.5922413 -0.19733033
-0.96486115 8.103128 -0.18517151
0.46724087 2.3501086 -0.21506292
-0.61405003 11.191204 0.33624005
-1.547591 5.3841734 1.1828997
-0.5769222 8.337465 -0.21543121
0.38370645 9.627584 -0.041305453
0.20955998 12.637171 0.41821766
-2.3322234 -0.3482079 0.2774775
-0.14707568 4.366639 0.032960147
-0.5225297 8.513861 -3.0291543
1.4107828 -0.082073614 0.945963
1.8031056 0.3367231 0.1850777
-0.10169892 3.8003497 1.1510949
2.0867276 0.9518304 0.90956163
2.1094046 1.101552 0.5440557
1.4646628 10.102009 0.3280592
-0.3387707 5.708102 0.4383945
-0.4895813 8.738539 -0.22509965
-0.6968893 3.7853813 0.7122028
-0.56859994 3.127747 -0.39636827
-1.3897583 6.465312 1.337218
2.2886739 7.714121 -0.0594932
-0.78959525 12.446812 0.747561
-0.59602 13.458195 0.8511176
-0.26980817 4.1593 -0.5788777
0.3888129 2.7332249 -0.35378796
1.0629747 2.5280209 0.96161914
1.245259 5.0736055 -0.22207633
3.086361 -4.5689764 -0.19192281
-0.62399286 3.6576266 1.4575138
-1.243463 3.6067123 1.1520824
1.1539652 4.16397 1.3624749
-0.65706813 9.74181 0.59809816
0.31687635 6.981332 0.31374842
0.59429836 8.6082 0.5784849
-1.3789129 3.7510428 1.4650683
-0.8502145 2.0634727 1.1415603
0.40939313 7.2537136 1.0188711
1.0615358 9.4018135 1.1604612
0.63112855 5.601159 0.92822313
-0.9449178 2.3164153 -0.21006769
-0.6627574 9.472925 1.6432397
1.488158 4.7882032 1.0325477
0.16009283 6.5439043 -0.51287246
1.5561215 9.233561 1.2650043
0.97313476 3.590423 1.3823979
-1.2886248 7.2429934 -2.325492
-2.2564454 -0.68034136 0.17345747
-2.2713065 -1.4279268 1.3072896
-0.31656617 6.486149 1.7819889
0.8181678 6.7642508 -0.25378445
1.7879355 3.0655622 0.030070223
-1.9311984 3.8387828 0.81643045
1.0141973 8.297398 1.3449931
-1.3680656 10.420237 1.3330381
-2.0514083 -3.1202579 1.2581294
2.3017263 -1.7971275 1.0720739
-2.9684377 -4.5764103 -0.36928618
0.7591413 4.2339115 1.5911846
-1.9566076 2.7904472 0.8343066
1.9744673 2.2175217 0.70968664
0.0086585 9.674747 0.90335345
0.46703637 6.394106 1.144737
0.83363295 8.516548 1.648062
-1.9646666 4.268259 0.2730859
-1.058945 8.763346 1.234935
0.5221156 3.9674635 -0.57354796
1.482039 4.3257513 -0.12297624
-0.9112772 6.011181 0.7947142
0.6265819 9.027798 -0.12620807
-0.51487434 3.1716022 0.23938918
1.7391186 0.48627448 0.7713281
1.3048773 1.8541446 0.4459368
-0.5437968 8.151976 -3.9846997
-0.6022283 4.529252 0.6525724
0.37114012 10.052643 0.4485498
1.6537545 4.1584635 0.1481103
1.0299108 7.5422745 -0.106005624
1.1527712 1.3510747 -0.28700304
0.2647534 11.747692 0.29732645
-0.8514825 8.485464 -2.7628293
-2.8293772 -4.7817698 1.6968586
-1.7068496 10.284063 0.8003622
0.5605655 10.021048 0.11640409
2.2156658 9.350241 1.0027003
2.050127 -0.055622987 1.1299081
1.3561466 1.2994986 0.042547666
2.531529 8.605501 0.4722367
-1.7718093 8.184803 0.81607974
-0.15733337 11.214315 0.3847471
-0.0629974 9.85038 1.5035243
-1.2203538 8.046328 1.5261567
-0.18970314 5.932315 1.4168885
-2.3098168 9.586679 0.25323027
1.0561519 2.873579 0.5026995
1.2958269 4.0867786 0.23537713
1.1218967 1.2505074 1.1031336
-0.25587618 7.841296 -3.0305328
0.19050005 4.8500547 1.1058424
-0.28333825 3.136736 -0.16021559
-0.30621275 8.383608 -3.4056115
-0.22372478 3.4154844 0.21626282
-0.13406253 13.417463 0.27842796
-1.2295239 4.537513 -0.44709277
2.0338607 -1.161639 1.4045777
-0.7657745 9.952007 1.2005491
-0.77424586 8.202909 -2.4198685
-1.9814286 -4.2168484 1.1116369
-0.68171775 6.5027485 1.7970767
-1.8452704 -0.85802436 1.2473731
1.4300871 3.5792818 -0.33850968
-1.7315919 -1.4906683 0.93289125
2.1128216 -3.3702273 0.7834145
-2.3795972 9.20619 1.1293943
0.9244468 1.928678 0.10828684
0.059786953 7.078128 1.0071392
1.6193662 5.078864 0.77311563
-2.5267048 9.267969 0.33328533
-0.50766385 4.1673317 0.09244649
2.6787057 -4.182603 0.93131316
0.99554193 4.2349644 0.4938156
0.02631478 7.5279064 1.0299653
-1.7330751 3.066934 1.0916171
1.9111891 2.608223 0.58722997
1.4722688 4.0421324 1.1062548
0.806588 4.2432218 1.1527686
-0.02781339 4.537794 1.0583818
-1.0899594 7.947625 -2.2609196
0.7184715 7.7329826 -2.4497523
0.75058734 4.465537 0.7617563
-2.31954 -0.34225935 1.1401756
-2.254064 0.71691775 0.54574835
-0.10661626 5.368347 0.42855382
-0.5040424 6.846781 1.8419106
2.1947355 7.781622 0.36555016
2.5887618 -4.61263 -0.6748929
-0.7453816 5.0963163 -0.19489974
-0.2860253 9.535952 0.658785
-1.8564494 -0.7297721 0.26007843
-0.22266212 4.612572 1.8342981
-2.6691194 8.558716 0.86347044
1.3798487 0.47331804 0.1661286
-2.6458397 -4.6065197 0.111840576
-2.5168314 -4.2195196 1.0636263
-0.4431393 7.2747173 -3.572116
-1.6246047 3.568139 0.17846864
-0.87956625 7.7830014 1.570471
-0.5471368 12.491642 1.1147323
-1.4816656 3.923617 0.0531758
1.5886116 1.3087475 0.34562916
-0.31360987 7.2646523 -2.4126654
-2.5803037 9.290764 0.74167883
-0.015428603 3.1624703 0.8334179
-2.7161884 7.259609 0.03394776
0.030863235 13.207542 0.67364156
-0.4926953 10.542706 0.22612129
1.8340597 1.8096523 0.03458587
1.0867183 5.9783173 -0.083021626
-1.3705575 4.730582 0.04129324
-1.5086625 7.4993773 1.1497755
-1.6074722 9.360384 0.50477076
0.6096691 5.36642 0.22674948
-1.6146615 8.206625 -3.5046997
0.6788589 8.631388 1.3098488
0.73402834 3.3081307 -0.5275061
-0.8844985 8.573637 0.51000917
0.3303616 13.056797 0.9831188
1.3897929 7.421097 0.41702306
-0.29291123 5.3374653 1.0910139
0.30629444 7.4599924 1.3749034
-0.14851397 4.9566746 0.39134508
-1.4015067 5.087763 1.3876667
-0.99579513 5.8159018 1.1581464
0.80632937 0.777683 0.7485448
2.0111117 8.348337 0.8764087
0.20530659 4.5434875 -0.2288284
0.90373707 3.2725668 1.2573867
1.5887816 2.0450053 0.2008946
-1.0703456 5.094198 1.2137024
0.25114793 12.308962 -0.5806159
0.047751598 8.016436 0.5091826
1.8736238 3.0238605 0.4593808
-1.2511287 2.0587945 0.97199154
0.36700028 3.161233 -0.47772807
-0.028372448 5.5476303 1.3248584
-0.2223764 11.810583 0.06202262
2.2482738 7.3587847 -0.6821896
1.1364684 5.86742 1.3748403
0.2645439 2.8434267 1.3251269
-0.5584389 8.931694 0.5248252
-0.28157544 10.23135 1.4274952
-1.2424352 9.243277 0.68276787
-1.3587611 7.6497 -3.6554565
-0.006739894 8.590811 1.2963951
-1.2545519 10.766502 1.1816492
-1.1394341 5.1742525 0.71330404
1.1060221 9.008034 1.0658376
-0.68488085 10.458351 0.6427525
-0.518013 4.894393 0.41984308
1.1838098 2.6580362 0.24631435
-1.6772425 4.185957 0.92209923
-0.17698178 6.4791136 1.3880942
-1.5805252 8.28203 -3.1090126
-1.5837412 -0.7226118 0.5797162
1.5609281 5.6235085 0.35959363
-0.39621812 8.03232 -2.4314532
1.4787107 0.20271108 1.3271127
1.0955095 2.627812 1.2906055
0.18505841 8.5464 1.7085421
2.155645 8.106241 0.16479838
-1.7699705 4.179762 -0.10574186
-1.4418867 4.750222 1.41788
-1.6646507 5.713482 1.0027335
-0.102724046 7.7619886 -3.337521
1.8182163 3.648314 0.6887697
0.7812208 2.7985969 0.7310827
-0.7777833 8.373024 0.1296264
-0.96773255 8.570368 -3.1617799
0.6533905 3.1683288 0.93062854
0.4396655 3.3810835 0.71176815
-2.0943732 2.6720572 0.24517411
-1.6705556 8.750715 0.5164932
-0.07800461 6.2891045 0.73659325
1.4976938 1.2521393 0.7727045
2.3381572 9.446089 0.65691626
-2.0290208 8.765514 0.3252101
2.140853 -0.7946584 0.68549407
-0.47052115 12.913574 -0.028375085
0.38422972 12.639578 -0.36001325
-0.4703563 4.5234823 1.01881
1.1942923 9.192242 1.4612656
-0.88283277 6.2089624 1.2577264
0.22564593 7.1492043 -0.042461134
-2.661001 7.3039675 -1.9587426
-0.30655283 12.118347 0.9939098
-0.20198882 7.1901426 1.6448467
1.2407238 7.205841 0.17034614
-0.3663423 7.279149 1.0517607
2.1129813 -2.020955 1.3213639
-0.33333158 9.675465 1.17084
1.3800602 4.05727 0.6373532
-0.99626887 4.039771 0.8882158
1.0909111 9.161541 0.36684817
-0.098876685 12.035448 -0.70515335
1.731226 3.891913 0.4005937
-2.315597 8.482073 0.17433795
-0.73744524 4.5548353 1.3919709
-0.289176 2.7438736 0.026183546
-1.8370252 5.3891582 0.45196676
-0.575102 13.078312 0.7025988
0.47711325 4.7051725 0.50341487
0.08676177 9.012829 0.14431575
0.4531927 12.50844 0.01541673
-0.5912832 6.145298 -0.50605094
-0.91275096 6.4161167 0.7773609
1.4426658 10.583187 1.0458534
0.25900197 7.9821167 0.07645956
-0.11016333 5.3786325 1.7653267
0.35037857 8.2559395 0.694067
0.47892666 3.8874345 1.6096005
-0.9039586 10.471029 0.28176916
-2.7062244 7.451133 -0.71690404
-1.0397732 6.676735 -3.6734152
2.179937 -4.2927704 1.4425735
-1.7170644 5.786192 0.147441
0.051050052 12.847239 1.221805
-1.5706155 1.913656 0.065017626
1.215148 4.8559837 0.18791202
-2.792811 7.433264 0.42725456
2.4365182 9.010021 0.5615637
-1.1985958 3.3692183 -0.38964164
0.053088084 6.8986397 0.65624046
-1.4115489 0.62272036 1.3803473
1.0863979 0.6273029 0.510829
-0.12203196 11.12995 -0.03504539
-0.6670151 3.1742215 0.6545229
0.84138346 6.537178 0.122946724
0.057782948 5.954707 0.97317314
0.58617973 1.3523364 1.073828
-0.74162054 7.138137 0.8111079
0.36873412 10.546114 1.3778682
1.420207 5.999486 0.20216733
-1.5381501 8.1601925 0.19466609
-0.58542967 9.305975 0.5946374
-2.1403518 -0.2085306 1.4507012
2.5000167 7.455617 -0.2605086
0.4359861 4.2150097 -0.19570738
1.5264812 1.7132056 0.809376
1.8329539 -1.1066594 1.0671144
-1.2397301 8.476452 -2.9256105
2.2209773 -2.5296745 0.79977334
0.21426225 13.595087 0.53758776
1.7940645 9.955303 0.70802283
-0.5568669 6.728215 -2.716436
-0.071290985 5.182352 0.05027964
-1.9622247 -0.40102357 0.080111414
-0.19938391 4.6250334 -0.3077063
1.1819429 10.414942 0.4548201
-0.356156 7.6528835 -3.6047516
-1.3488283 7.500346 0.80242527
-0.5727427 10.20587 0.08203186
-0.22193205 9.205589 0.35254407
-0.38021982 8.160297 0.4515065
-0.60039556 6.5992527 -3.1621208
2.3620272 -3.3698883 0.97314394
-0.92663753 6.660988 0.42914885
-0.98782575 3.7677898 -0.4798352
1.2695503 10.172087 1.0683243
1.4369259 8.841913 1.2849367
0.17656788 13.455313 0.91240656
-1.6575178 7.6183023 -2.976192
0.5395269 8.533337 0.09574193
1.1849282 8.767649 0.38283414
0.9099525 5.6347027 0.29706293
0.90949 6.792742 0.5806308
1.1253052 0.26188952 0.46750814
-0.25530785 9.329203 1.0113513
-1.8917141 2.1311922 -0.1080706
-2.1273975 9.721014 0.7238797
-2.0812902 -1.536571 0.77315855
2.071179 9.10894 0.62774754
-0.22911766 6.213563 1.1066656
-0.63272285 6.1520176 0.11144118
1.721636 0.13921192 0.97695804
-0.687701 1.5148065 0.6701375
0.12893644 7.6871634 -0.34410858
-2.171681 6.997698 -2.8651218
0.12030454 4.945298 -0.3020246
-2.1034193 3.4397893 0.52391183
1.4394498 -0.2182113 1.3334777
0.7643721 8.402863 0.9058794
-1.7455804 5.38636 0.047391392
-0.9607321 8.110781 -2.8678617
-0.5891702 6.649868 1.4342406
1.5006588 1.9150407 1.1195822
-2.1023188 2.439155 0.88900745
-2.1631923 1.041353 1.1947134
-2.1077008 2.0573292 0.98386264
-1.2231054 7.6061916 1.5108774
1.1266074 1.8587713 0.8893982
-1.6527543 -1.052146 1.5277627
1.0686626 9.823011 1.1512656
-1.0819235 1.598594 0.37719572
-2.609881 -4.603319 0.8769816
-0.59261084 6.0193987 1.0570831
-0.2859 2.5428467 0.59670305
-0.3224584 4.5175133 1.3649764
-0.71798754 8.803101 0.15178701
2.0187187 -4.6056557 1.2531672
-1.4593961 1.1903307 0.9009732
1.1144171 -0.17231286 0.20744655
-1.0916498 7.7657156 -3.3295102
1.7063773 -1.3821392 1.4127262
2.2809458 -2.299386 1.094723
-1.734493 3.6012578 0.5814978
1.4963751 10.6237335 0.67050564
-1.5111582 7.8497934 -3.2986827
-0.52373755 9.272816 1.2802482
-2.5820317 7.064707 -1.7384946
0.0900034 5.213997 1.0359824
-0.5557507 4.9426975 0.8017527
1.1137013 8.015209 0.57790315
-2.0099597 9.836353 0.24520639
-2.6293921 -4.333864 -0.15547022
-1.2916462 6.6571283 -2.8813834
2.078991 -4.221364 0.6546668
-0.92886686 3.1182399 -0.31740153
-1.6683536 1.5191445 1.1220737
-0.14823204 13.019011 0.23386252
-1.6388867 -1.0676584 0.9431683
-0.07349706 6.155278 1.6691849
-2.1665525 8.814781 0.96908295
1.5616326 8.952606 0.96806645
1.2167411 9.6231 0.8503148
-1.9414437 1.0139334 -0.04244043
0.18142375 5.3019695 0.65616477
-0.44217724 5.2299566 1.5323284
-0.997562 10.110038 0.1263955
1.7143297 3.4168544 -0.08069855
0.84093666 4.8864613 1.5919096
-1.5422108 7.147626 1.1091774
-2.7382903 7.4839926 -0.2578938
1.9198136 -1.5045772 1.034502
-0.29754636 10.649532 0.5321854
-0.7556752 3.4579263 -0.4895439
-0.07140072 11.094284 0.9493152
0.21795607 5.6059723 0.93659246
0.58483446 10.183327 1.5332787
0.8395089 8.020325 0.96541786
-0.12032649 12.913923 -0.22815198
-0.13867122 4.1691437 0.39958376
1.1105801 0.7698693 0.17858762
-0.4894793 4.302655 1.6447117
1.6014378 5.231168 0.4268791
0.8018507 4.4333534 -0.2344315
-0.28552067 12.227585 0.21116817
-0.5568198 8.369358 0.7668183
-2.2543445 8.386017 0.82713306
0.24486244 10.357269 0.20623305
-0.7990819 12.297443 0.32608545
0.18436748 11.037468 0.23768991
1.7281001 -1.839288 1.2971966
-1.0810375 8.807785 0.1754941
-1.1648822 7.203519 0.1730988
-1.1596253 7.861085 0.8856659
-0.2107938 13.453068 0.98436606
-0.6235548 7.989537 1.7983471
-0.41294903 11.367347 0.06468594
0.03918457 6.376669 0.17502642
-0.5000776 5.3636885 0.69345474
0.15928942 10.214817 1.4497154
0.3562476 10.677832 0.8751708
0.9501518 3.8276477 0.19384244
0.18509665 6.471387 1.7301085
-0.16624197 10.332742 0.11950266
-0.15556969 8.136129 -2.7481241
-0.24280101 6.591298 0.5677886
1.4068403 3.151184 0.6629597
-0.50691175 8.5536 0.43567622
-1.6849551 6.8195724 0.89871514
-1.0861444 1.8117049 1.2648163
-0.0009510992 2.837946 0.5875193
-0.034520283 10.719818 0.20157969
-1.9571426 -1.2684093 1.1362691
-0.5009346 7.1582127 -4.0352936
-0.2623132 5.7861023 1.8197954
-0.62908626 4.172 0.86414075
0.5883907 3.6465907 -0.274494
0.43225437 7.5714006 -2.983698
-1.9081831 10.622393 0.7895709
0.26517826 4.774582 0.0925242
-1.8554235 -0.41410297 1.221705
1.6760912 10.270308 1.1610463
0.25671113 7.667638 -3.3651361
0.88508034 10.184286 1.0916045
-0.31555635 10.879707 1.2021296
1.9694533 8.493008 0.21179935
0.6132195 4.9467316 0.17516139
1.3357952 4.471982 0.4261437
0.79205453 4.214267 0.14269519
0.2433618 7.6430683 0.6790823
-1.7643425 9.064688 0.25259328
1.9080737 9.472698 1.2005835
0.9219178 7.456417 0.27363414
0.9210849 7.9257517 -0.18261084
0.13322654 11.29421 0.7062975
-1.8537068 3.468803 0.96000195
-2.8544588 -4.581191 0.4718362
0.7520181 3.5867229 0.5100347
0.23637238 2.9001474 0.2499471
-0.8731861 7.549143 0.82687664
0.38968587 12.465401 0.78472245
0.8957089 0.066489026 0.7665833
1.5263286 2.8421416 0.4100471
0.11895278 6.092189 -0.5654007
-0.16767547 7.158041 -3.8056679
-1.146357 8.229811 0.54222
-2.1533546 -3.5935717 0.79530334
-1.4052134 9.365137 0.018195879
0.48427838 3.7696977 0.8049269
-1.3985252 7.082672 -3.2761703
-1.4205325 2.966342 1.2596049
0.8516947 3.542326 0.90214133
-1.4306412 -0.849547 1.2303011
-0.41086844 9.9079075 0.34496468
0.2737922 3.2396288 1.459508
-0.75514245 7.3180637 1.1693168
-0.90520144 6.592038 -2.8797684
1.5503452 -0.32423395 0.3698154
1.3597412 -0.50802064 0.07376099
0.78918755 8.892309 0.2345295
-1.560914 4.3504286 0.18480375
1.1382728 3.4135866 0.51687753
1.5151815 7.3139067 -1.2609599
-1.8173721 1.7254272 -0.1881721
-1.565342 3.1127338 0.0627718
0.25681108 5.840406 1.3389349
-2.076962 -2.8253675 0.90818036
1.1922505 2.1449485 -0.38163286
-2.4392176 8.441589 1.1218762
1.0422728 1.1620679 0.13907552
-0.16943765 6.128688 -0.20479193
2.1995554 7.3971205 0.18531534
-0.21680933 6.338888 -0.54856086
0.2336776 4.3420267 0.15726069
1.8018227 9.283989 0.33852762
-1.6643124 6.443019 0.64375377
-0.105631605 5.608423 0.08501057
-1.9036069 3.9018593 0.12478426
-0.9368855 13.001762 0.57383037
-0.7118175 4.1775846 -0.557042
0.51717794 6.200881 -0.48031014
-3.0177307 -4.551671 0.050596103
0.66723573 9.8915615 1.2501901
1.0190887 3.1531844 0.8330487
-1.8555684 -2.1453218 1.3335371
-1.2468085 3.9772234 1.1438425
1.782378 9.235567 0.82904303
-2.2714143 10.382977 0.6564528
-0.91749704 9.833025 1.6131957
-0.3361069 6.4427156 0.14174268
-1.931895 8.367025 0.4628824
-0.9012978 8.653673 1.5894523
1.0973961 8.617113 1.050381
-0.38470304 7.688286 -2.701552
0.41123056 7.8939037 0.39825463
0.22003752 2.196384 0.4294151
-1.5401545 -1.3042231 1.2586026
-1.0395215 10.250162 0.6909362
0.67451847 9.246695 0.9883393
1.4792616 9.602709 1.3085489
-2.212534 -0.6381476 1.3993225
2.3646774 -4.6063585 0.04982589
-0.857682 12.767265 0.058492344
-1.0307086 7.6256113 -2.9351845
1.7709043 1.0492642 0.5133763
0.109074235 10.079027 0.7696117
1.099798 2.9687028 -0.4965664
2.4542375 7.113019 0.3829137
-0.33893794 3.9538355 1.4690452
0.06432223 3.9787302 0.795872
-0.047493726 10.104099 0.3915265
1.1488361 3.8705697 -0.48911178
0.3924963 5.922924 0.68079686
1.7492669 8.475916 0.5836184
1.4305968 9.373516 0.17310134
0.040753186 4.968918 1.7820549
-0.5427314 11.980146 0.3950528
0.52254224 7.4397516 -2.5848064
-0.83913803 1.9573462 -0.055180833
1.4634852 3.6367488 0.65271425
-1.7178895 5.7637234 0.57699406
1.7676055 3.2981067 0.74031997
0.34949875 8.789209 -0.18173411
2.3128085 8.466489 0.21151903
-0.059521973 8.839865 -0.18177915
-1.70966 10.163143 0.3179692
1.5878477 2.4491959 0.2979138
-1.4686133 8.222349 1.2172472
-2.3812265 7.058943 -2.5877283
-1.579973 4.7783794 0.38972318
-0.6013063 12.153536 0.76073635
-2.1082745 10.3305645 1.0090566
0.97022724 6.4210167 0.46303064
2.1731815 -4.6522484 1.5769637
-1.1776154 8.6043625 0.8615042
0.9662231 7.9764385 0.21963277
0.4606793 4.1438427 0.86276555
1.6998885 2.7032313 -0.14910838
0.99129987 2.456581 0.62672997
-0.41262895 5.5725727 1.4637434
-0.051519915 4.3197384 1.5447176
-1.1763299 8.938375 1.5830178
2.233385 -0.8585526 1.1445591
1.7536964 -0.4330191 0.06761907
0.7466142 9.0613365 1.3148527
-2.2725186 -3.8978105 0.44167745
-0.3722539 3.4939775 -0.39995062
-0.59742606 7.4134216 -0.31666833
-1.6740096 7.547593 -3.8964033
-2.3802218 -4.198168 1.452951
-0.3674817 3.8157635 0.22344479
2.1185255 -3.5712838 1.1365688
-2.2526507 -2.0661283 1.2007313
0.023109242 6.945628 -0.4172415
-0.49209815 6.2307577 1.4594953
0.26369327 13.021013 -0.40099132
1.103265 7.6140985 0.58369386
1.7302599 -0.31403923 1.0428507
0.73266184 9.512728 1.3072202
0.55084646 12.834513 0.7278459
-1.0020673 7.5724277 -4.21084
-1.5455091 -0.5964674 1.4776349
0.32897115 9.841095 1.5623596
1.8623211 2.6821642 0.18844885
0.97478867 9.274553 0.73953617
-0.91972136 8.249802 -3.930913
-0.9826623 4.2567225 1.2817824
-0.5560434 3.488749 -0.050126232
1.6650484 4.6696157 0.7181128
0.40547496 8.394577 -2.38731
-0.91666234 4.369171 1.690135
-1.0490756 1.612314 -0.09482713
0.5087966 5.0817957 -0.5331471
-1.3497024 2.921218 0.38731813
-0.26675993 9.497112 1.5234125
1.083009 4.08852 -0.117226675
-0.5275661 6.2623653 0.752056
-2.1941147 1.077416 0.7244687
-2.7356162 7.417303 -1.1674504
-1.5353844 1.4140661 0.57765806
-0.10191217 13.021753 -0.61045504
-1.6171806 6.8246775 0.5236479
-0.48406976 8.351837 -2.6781864
-0.7286941 3.8999496 -0.17668608
-0.89618564 2.924117 0.3587278
-1.368598 5.920801 0.25129145
-1.2344785 3.195599 1.0266373
-1.7808514 5.3525743 0.84129846
1.4095113 2.5304236 0.63671887
-0.5824566 7.7816143 0.5193144
1.4648759 8.186535 0.7251251
2.5757065 7.792241 0.5603812
-1.9209881 0.16894498 0.3591773
0.77975607 8.675894 -0.17308286
2.41424 -3.8362436 1.0035031
-2.0472884 1.6807113 1.1183615
1.0931025 0.5396184 -0.13295093
0.0971936 11.734184 0.66498375
0.80805516 4.9688683 1.196213
0.19574267 6.2831125 -0.20585889
-1.503638 6.6023703 -0.08141829
-1.5213385 4.1113596 1.3221881
0.77132046 7.781996 0.5102942
0.79163945 5.8509264 0.6116183
-0.756933 7.83807 -3.1619396
