2.2042027 9.859976 0.5207683
-1.830369 7.588172 -1.7122376
0.57962334 5.0877705 0.633492
-1.4407263 10.857204 0.7050582
-0.4849481 2.8095999 -0.24670452
0.85728395 6.330415 1.0987728
-0.96960664 9.497591 0.606948
1.1874254 6.060363 0.73283756
-1.3325901 7.8578405 -3.0227723
-2.1693316 10.066393 0.9963616
1.6705656 2.0246763 0.65703046
-2.2184052 7.633548 -3.25987
-1.4669137 10.546692 0.42620975
2.2138019 -0.4810006 0.91908085
0.26161826 4.0482855 0.53553104
-2.0634904 -3.9379482 1.4241259
1.1697183 9.698433 1.4368399
0.4575521 5.8329954 -0.47733253
0.89652085 7.6450996 1.6241348
1.1338706 4.4974337 0.074651495
-0.9419364 4.892168 -0.46084797
-2.3892455 7.808592 -3.555984
-3.2530742 6.7509365 -3.0295672
0.27443987 9.267269 -0.18028861
-1.4885209 10.017986 1.2932394
-0.86367786 6.887619 1.6396813
1.4722865 5.352455 0.04892391
0.5405197 4.823537 -0.1854833
-1.175771 6.7190657 0.13916168
2.1395788 0.30548775 0.97637534
0.19526854 4.392461 0.76626253
-1.3081257 1.604954 1.3370485
-1.2554016 4.412899 1.5351577
2.2345223 -3.977439 1.3930194
-1.247544 4.1040297 0.38848263
1.1711605 2.7760801 0.9359784
-2.7986865 8.133133 -2.9529638
-0.6369047 7.7778187 1.3002007
1.405668 5.829404 1.0422657
0.82714784 5.70116 0.016247123
-0.6936064 3.7118711 0.24600926
-1.0869281 11.01606 0.77874684
-0.50951743 8.143578 1.4244127
1.5415902 4.4186106 0.907619
-0.7726388 5.460458 1.374006
-0.71704257 2.6848774 0.71070755
-0.5273576 12.794008 0.6663462
1.2773669 8.456696 1.3520656
-2.4192462 10.075911 0.3501302
-0.734449 10.093893 0.35450816
0.82721496 2.9004345 -0.3716606
0.92486405 3.9165506 1.511847
-2.2462592 1.6601932 0.7860962
-0.5638648 4.6572 1.8393884
-0.6530454 7.208374 1.7884622
-2.1154666 0.9975542 0.32147872
-0.5466304 6.466094 1.0883563
-0.5016955 4.5562563 0.052628048
0.47448373 10.992601 0.5282378
-0.41218144 13.160648 0.52852094
2.1608925 8.86812 0.19082946
-0.5251535 4.9416656 -0.56075776
-1.2450669 9.755104 1.4466739
1.074306 7.3885174 0.89488804
1.9978905 0.64949274 1.1093814
-2.6880136 8.762569 0.5112628
-0.0723837 9.097004 0.6499021
0.7928927 9.812576 1.5529001
-1.8186533 0.7307519 0.44078046
1.7514541 2.4848351 0.8838974
1.3630359 2.222773 0.78196144
0.78844154 2.6713386 -0.00073408184
1.3755887 7.063493 -1.6515088
-1.2864614 4.8007193 1.0829949
-1.2462261 -0.09895377 1.145457
0.87338555 2.0604434 0.9485599
-1.9820492 0.3137868 -0.088562146
-0.25750828 5.7186985 -0.19645661
-1.6660459 7.3317423 -2.2099833
-1.3255057 8.26936 -0.1882264
-1.8749297 1.9590456 0.59286165
0.7619133 1.8022187 0.3384288
2.4087768 8.158005 0.9303013
1.3953371 2.1688223 -0.001356012
1.622437 2.0182347 -0.2656836
-2.9998622 7.5893755 -2.0771413
-0.30566448 8.945723 1.2203579
0.6497791 10.805712 1.1512556
2.7822752 -4.6141157 0.6652423
-0.7444657 2.4288502 0.4109708
1.1457753 -0.71085334 0.958115
-0.81521726 8.160908 0.45115978
-0.59111714 11.6030655 0.13354361
0.9913268 3.4299507 0.22605503
0.8767556 3.7572703 -0.5330664
-2.7578301 7.6415615 -3.4448605
1.4049473 0.9668896 0.52306235
0.17395124 10.829327 1.1395774
0.55173504 4.3346214 0.5091436
1.4173112 9.328377 0.6181276
-1.8981771 0.6302966 1.3531463
-1.1871617 2.1868653 0.4562741
-0.5880401 9.2238655 0.12667936
-2.291297 -4.606435 -0.046948064
-2.0561132 -4.6318226 1.6844077
-1.7404366 -0.089842916 1.1134546
-0.7785915 4.532751 -0.5457598
-0.88163185 8.956226 -0.22190842
1.1077085 5.617914 0.92376924
1.0572524 6.2575035 1.4700887
0.81117177 6.145258 0.037899137
-2.4947417 -4.584835 -0.4513209
-1.6493461 9.525101 1.1904604
-2.4484687 10.160847 0.7201098
-1.4026461 3.5226412 0.819765
-0.116322756 7.00523 -0.04299385
-0.38529396 7.6905174 1.7701486
-3.759233 6.678746 -2.1947527
-1.8687592 7.912341 -2.717073
-1.9923377 7.9184856 -2.3277636
-1.4360144 9.738853 1.0136676
0.6421684 6.652748 0.38353503
-0.69747436 4.0044737 1.6366208
2.4716678 -4.2353687 -0.07438378
1.2534897 8.2455635 0.05876769
0.19553843 8.164078 -0.19059065
-0.29958546 5.0225334 1.8501291
-1.2315469 1.2245073 -0.15961808
-2.089428 -3.391364 0.9079609
-1.7014041 0.81492174 0.78757954
-0.5001159 5.60909 1.1317041
-1.3751464 0.5534214 -0.036772445
0.8225609 6.440586 1.6821597
1.5019586 8.215958 0.3645987
0.20286077 9.029697 1.6863127
1.5653582 0.0023964187 0.26807767
2.0758147 0.2723841 0.55981684
0.6867323 7.0496807 0.4917841
-1.7887046 3.2795143 -0.13625601
-0.97989285 9.225082 0.2252914
0.7008959 7.4244785 0.6442988
0.9248817 8.309078 -0.12846333
0.48504192 9.550131 1.6364388
0.5778352 4.845953 0.984993
1.6762633 0.18929255 0.5506836
2.3161664 -4.613143 0.56464446
0.5545931 8.338232 1.6270584
-1.0026429 9.424175 1.5595276
-1.1785684 4.516608 0.34960282
1.5280926 4.0329294 -0.21673512
0.87807775 0.85825324 0.014589585
1.9335785 9.504631 0.6324016
-2.4914322 7.4291363 -3.6108155
0.2854312 8.830032 1.3478985
-0.20784774 4.310503 0.7605629
-0.06565912 10.688831 0.8218061
-0.30813438 12.56428 -0.3497303
-1.2271662 2.8352747 -0.35909116
-2.0561404 7.2412176 -1.6287928
-1.8220661 9.5798 0.7952163
0.78813326 8.803787 0.95429313
2.418179 -4.585994 -0.33954126
-0.5550078 13.505974 -0.25585502
-1.1296062 2.3870006 -0.30872583
-1.4308422 7.956609 0.500592
-0.25754213 9.925535 -0.07717697
1.011667 5.9866962 0.33699822
1.0854726 4.6929207 -0.38769025
-0.89859104 7.2234936 -0.24262598
0.3272161 4.6011124 1.44891
-0.35417467 13.575199 0.49364805
-2.501495 8.791687 0.8700428
-0.14983824 7.6597166 0.6987411
-1.123313 0.23367602 0.95678663
0.10275026 9.453707 0.15124443
-1.954839 -0.48080164 0.86687577
-1.4166973 4.0878725 -0.3552361
3.0451078 -4.5911846 -0.5616747
-1.3411303 5.175515 0.91815627
2.4430504 -4.608987 1.3641577
-2.216319 -2.5997863 0.9399291
-0.7550428 12.729007 0.9309629
2.5741162 -4.593833 1.0019498
-0.6949781 5.0335207 1.833749
-0.41371515 12.11668 -0.7550429
0.62322354 2.1479077 1.2819054
-0.72446346 7.973572 0.8334465
-3.0253277 6.9908743 -3.3035865
0.91158783 9.017612 1.5901477
-0.6312541 5.9214716 0.4897142
-0.8755326 5.378416 1.7404354
1.5183206 8.303928 1.0687001
-1.4183974 5.135272 0.19011557
1.0415719 7.3830633 1.2860973
1.8725016 -1.0499368 0.64865494
-1.8840268 6.8771915 -1.8077037
-2.624899 6.410386 -2.6652179
-2.1528025 9.614742 1.0146587
0.07769653 2.5612936 0.38104194
0.5435281 5.230999 1.0202794
1.4179633 3.4528027 0.11897926
1.7412829 4.369376 0.55346835
-0.9584714 4.7019787 1.7180398
0.01780025 5.170795 1.4805286
-1.95257 9.510334 0.15451166
-1.390641 9.091522 0.29207027
-0.2194795 7.614812 -0.33359945
0.43289316 4.5315294 1.0511858
2.1592293 -4.5910845 0.9300008
-1.9780536 7.8054266 -3.547492
0.04583493 8.940052 0.9831929
-0.4857973 7.1998453 0.065519065
0.49961913 6.7686863 1.6301663
1.1878247 10.008451 0.5628549
-0.5449189 2.6616178 1.0817552
-2.1320128 -4.255313 0.6418371
-1.1921494 7.607444 0.22748113
2.5031204 -4.2321463 1.2437868
0.13903067 5.795019 -0.21833625
-1.5223312 -0.041741237 0.09487414
-3.1749024 6.9085817 -2.5069904
-2.3153195 -4.2571287 0.17761889
0.41753626 12.179804 -0.338598
1.1330383 6.970232 0.8842517
-0.2264745 4.151805 1.0981734
1.4514737 1.7692211 0.06856005
0.28386563 5.125533 0.38750386
-0.36888075 3.4459481 1.281872
-1.4492166 0.5118314 0.43209422
2.1140246 1.5278828 0.63838625
2.0854192 9.140547 1.136986
-1.599617 7.874424 0.8761825
-0.6976321 10.243177 1.429132
2.8531852 -4.2850122 0.048598915
0.15445006 9.983913 -0.0062208185
-1.50422 0.93165016 -0.22574297
-0.1307024 5.1144714 0.83537483
2.8682384 -4.5495243 -0.8878976
-2.2708416 6.3797436 -2.7246146
-0.3403839 10.269913 0.47449714
-0.6958389 7.5654774 1.707576
-1.8973999 7.823618 -3.1007104
1.9600725 1.8100367 0.86630154
-1.2707641 8.984112 0.90047145
-2.7744594 7.2977543 -2.300931
-3.1553698 7.5762796 -2.4796562
0.6934637 2.571406 1.3524494
-1.17999 8.424679 0.14104176
0.49993038 4.22326 1.3666961
-0.49973655 11.698877 -0.27628732
0.97378576 1.0243864 0.4334212
1.4100144 -1.0803833 1.1450472
-0.064022124 12.639391 -0.6872245
-2.2264256 7.903575 -2.9532933
-0.48565096 10.741344 0.758652
-0.1670554 12.785251 0.43850005
-3.2379556 7.5406675 -2.9003887
0.5746212 7.8540382 -0.19023675
0.91986954 4.6577444 0.4142527
0.9776335 1.9013009 1.3212497
-0.9198315 0.8724215 0.3702597
2.1953812 0.65529203 0.73920536
2.5175505 7.337488 0.7369945
-2.0030832 3.1146278 0.19742888
1.1510825 2.8362398 -0.06507392
-1.397814 10.076633 0.5443158
1.5966733 -1.7405429 0.99143815
0.29853052 7.7184105 1.0636401
-0.76399016 10.925215 1.0763924
-0.3371014 3.1644268 1.0351272
-1.2519827 -0.42519182 0.5800024
1.3806458 6.6700974 0.6270956
-1.194179 7.5104694 -2.895306
1.6695819 9.546234 0.88985884
0.4051546 13.305218 -0.31949425
1.4099381 5.2808514 1.1356001
-1.2784412 10.502237 0.8043916
-3.139146 8.24832 0.71329844
-1.8280487 4.9778795 0.6565913
-0.9335059 7.042885 1.2353287
0.67983484 6.9810886 -2.1945076
-0.09709036 2.964116 0.33132684
-0.1872674 4.7027683 0.7532239
1.1491053 8.374392 0.41375256
-1.7554173 6.8645353 -2.8144317
-1.8129704 -2.0492005 0.9759313
-0.549729 12.837423 0.27308637
-1.1578519 1.3699839 1.0995939
-2.4010568 6.8055954 -2.5823722
-0.73552036 5.011526 1.4618931
1.2377927 0.4249503 1.234344
1.9158072 10.054661 0.23640248
2.6173987 -3.9069452 0.63046634
1.4474072 3.7425213 0.3847766
-0.93661726 5.7565327 0.19387421
1.3115735 1.3692856 0.489412
1.4987221 -0.497445 0.8551774
-0.11066176 5.80869 1.1630669
1.5750017 5.9483595 0.6478741
1.8557482 8.869366 0.38721043
-1.5106814 -0.1610763 1.4122379
0.6450974 2.1892571 0.57814837
0.3049941 4.80107 -0.58724725
-0.6052511 6.7010508 0.7234422
-1.6119707 0.4431985 1.5089188
1.818707 -1.5165818 0.72100186
0.65709126 7.393088 1.2818892
-0.8118118 7.8746777 0.1402536
2.988779 -4.600608 0.24353248
-1.0635884 9.87096 0.40653735
-1.6488853 2.090819 0.30218405
-0.07300866 10.546177 1.2744741
0.58953595 1.9297144 -0.04761617
-1.3927937 5.613658 0.7377018
-0.28742716 7.0479975 0.38452324
0.45243537 1.4770954 0.42767602
0.77026975 10.541544 0.8607975
-1.3676102 1.705384 0.89342546
0.87800527 2.0635848 -0.243494
-0.7695148 6.5119276 0.07348132
2.7534885 -4.370966 -0.40044606
0.15908563 4.008999 1.5571759
-0.34729344 6.9818187 0.7613673
0.041246496 12.118916 -0.16625151
0.61202645 1.5266354 0.06867826
-0.47771406 6.2782574 -0.123107016
-1.6154068 1.2041185 0.15830633
0.62650967 13.016125 0.3385781
0.44880414 5.034398 1.4239812
1.239219 0.9878267 -0.22226095
0.70658374 10.374458 0.23978248
-0.03462649 13.601786 0.6169784
-1.7096138 2.388506 0.94295216
-1.4141994 1.794615 0.47967213
0.8161136 9.354275 0.26145297
-1.1230736 6.269578 1.0530126
-2.038681 7.1217804 -2.6426616
-3.7641382 6.9529324 -1.0044367
0.4139803 5.4762115 1.3737147
-1.1019328 0.5661825 0.26887393
-1.9041884 7.110491 -3.5902038
-0.5217694 6.7545614 0.3273903
0.8833177 4.203336 -0.474733
-0.21997912 7.81124 1.3189044
1.1598575 8.651831 -0.010725709
0.9277501 6.369055 -0.25429922
1.0673187 4.5611897 1.5457997
-1.234832 4.3946276 0.7331364
0.8147067 3.2144284 0.5774374
0.13485026 5.728792 0.5115837
0.05226343 4.182564 -0.22301105
0.40094435 6.3264503 0.7561313
0.60540926 3.0955448 1.3946011
-1.2018347 3.3735776 1.4542472
-1.2696815 3.4456038 -0.06062811
1.1564548 7.8081427 0.90560234
-0.0325569 3.686924 0.5248176
-2.766296 7.896639 -1.992136
0.22089645 7.7522717 1.7859285
0.47091317 5.59764 -0.10920107
0.5857582 7.789214 1.2827015
0.26181155 13.546684 0.02850018
-1.2586098 7.0300264 -2.3918018
1.8335769 -0.123015925 1.4161577
-0.48884243 6.119734 1.82723
-1.1127281 5.510765 1.0729373
-1.6065073 1.3170772 -0.2396149
-1.2884915 9.523682 0.30071825
1.5765865 8.694912 1.1366415
-3.4654846 8.040302 0.56939566
-0.7682208 11.078476 0.61968887
0.68268526 4.636942 1.3669429
-2.0300145 0.61760616 0.92486715
-0.5541928 5.6078033 0.1889506
-1.1925056 5.8806267 0.96207464
2.3051157 -1.5205743 0.92274
-0.644508 1.9080164 0.8103591
-0.2302844 6.8819685 1.2556155
-0.6896062 5.2030296 0.1952174
-2.2047157 8.072432 -2.6275606
-0.726769 7.4909697 0.40952015
-1.2332394 2.65878 1.3325884
-2.937868 6.910535 -2.1280313
-0.63076806 9.553381 0.8865901
0.17095596 10.37656 0.97534347
-1.7761333 4.60028 0.8527522
-0.22011432 7.1905394 -0.38900423
0.07372758 10.460556 0.5105057
-2.0100965 6.745946 -2.4868445
-1.4597657 3.253882 -0.34823424
-1.7263868 1.9766943 1.01822
-2.2920132 -0.72046316 0.91719854
-1.06358 1.0021803 1.1800132
0.23689166 9.319492 0.87985635
-0.3859024 10.903162 0.05490368
0.67844105 7.6852074 0.15039909
0.14521453 13.156818 -0.10250617
-2.1057668 2.9167933 0.5058248
-1.9841726 8.283657 -3.0300107
-1.5411859 7.786257 0.04769598
-1.3188939 4.874015 -0.3397361
-0.42654538 12.453207 0.39039505
1.2481642 3.4961653 0.97453797
-1.8911874 2.5034285 -0.14942718
-0.95677865 3.8647442 0.5207981
1.249182 5.695567 0.56537914
-1.0045323 9.857254 0.79667103
-1.1523645 8.3708935 1.1376622
0.13641185 3.3728266 -0.3429237
-0.4537815 13.631517 0.10668831
-1.0136621 5.751129 1.6062684
0.8906708 1.6574831 -0.17808837
-0.02017343 9.159977 1.3533697
-1.009824 4.6922407 1.3140051
-1.7333236 7.518959 0.66731095
1.1279852 8.273609 0.9028915
-1.1771317 6.126196 1.446687
-0.95470333 4.6356945 -0.12344894
0.57829046 8.160444 1.2722971
0.23867303 13.155069 0.2580012
-0.40258014 4.949362 0.07501212
-1.0975823 9.894537 1.1561534
-1.2624238 6.4790535 0.49479258
0.8603952 9.762934 0.0312633
1.5714645 3.2082963 -0.27829218
-1.3805964 8.250866 0.83640075
0.40922636 10.66431 0.33991075
0.59540486 1.1178238 0.2513227
-1.4550261 1.2190919 1.3078184
2.3483906 8.536398 1.1263878
-0.02051574 9.637062 -0.1234069
1.0793421 7.1934557 0.5517762
-0.06987399 7.5877247 1.6206439
2.1335979 -0.4033851 0.47100848
2.1528997 -1.775815 0.68096256
1.5027046 3.0137382 0.07272382
-2.6532922 9.792902 0.5105257
-1.34828 9.94425 0.13496622
-0.9600991 7.3272333 1.5368111
-0.83257174 3.84905 1.1988373
-2.158155 0.3264333 0.2955873
0.06853825 12.4559765 0.4484306
-0.004896053 9.756481 0.37922835
-3.4358878 7.2085075 -2.6813445
-1.5165887 0.13178408 0.8884375
-0.23871708 6.7531652 -0.46222138
-0.4609033 2.4414606 -0.07414813
-1.9931586 0.24808618 1.0826535
0.29349995 7.5559387 0.029493269
-0.65715563 10.108429 0.76115775
-1.6835575 0.906731 1.1825011
-3.4034266 8.05653 0.17162344
1.0965662 6.9771404 1.2929611
-0.45576304 11.887833 0.73829603
0.7133646 5.2893763 1.7260993
-0.4457708 2.7974067 0.43327397
-1.293396 7.3033104 -2.1319156
-0.33393836 2.4505873 0.29705036
2.0480924 1.483491 0.2975335
0.3898434 1.8787153 0.29313338
2.3909273 8.925997 0.9970758
-0.13648558 4.889059 -0.6042502
1.7258506 2.1237273 1.0514779
-2.0560527 7.266423 -1.961149
-3.8395705 7.619543 -0.4302007
-1.61256 7.6375885 0.3463102
-0.64156115 12.014244 -0.4756413
-0.90953636 10.66029 0.80279505
-1.3745973 -0.46819955 1.1555145
2.0681014 7.408369 -0.3849452
1.628865 0.4918657 1.1472495
-0.46726382 7.3804846 0.6886562
1.1129882 7.1740007 -0.09021503
0.31023055 5.3567657 1.7485919
0.6554465 8.117998 0.15778366
0.025086377 4.7914705 1.5018573
-2.043088 0.67024004 0.10523431
-1.1162026 2.289802 1.336087
-2.1949363 -1.0765038 0.84692705
-1.0642037 3.7057333 0.8638607
-0.29310447 8.046635 0.72759736
-0.4084323 8.558228 1.0547237
-1.6284168 10.6307335 1.001312
-1.8566055 7.4869986 -2.575068
0.43402344 8.916718 0.9328689
2.1040921 -3.886053 0.75692725
0.7074096 3.8554392 1.2180109
0.51199126 6.408807 0.032190874
-1.9431334 3.512394 0.14147758
-3.806571 7.2567987 -0.3409425
-1.7576413 1.144701 0.5126281
0.9566579 8.594177 0.66128147
0.9364784 5.6163435 1.618015
1.1330967 0.052343138 1.063833
-1.0885682 3.0419416 0.0041321255
-1.3562818 6.8924913 1.1339378
-1.8618195 10.4949 0.36269158
-2.8969102 6.648321 -3.200829
0.13169903 9.596846 1.2239876
-0.6671517 12.737204 -0.42540503
-1.5585454 0.8255943 0.17878908
-0.95585245 6.6437893 1.1770351
0.13175702 5.756027 1.8297896
0.92744946 7.231591 1.6232333
2.1395044 7.1503706 0.0017696223
1.3217666 -0.1402018 0.61378634
-0.12070435 11.626728 -0.82333124
-0.054569684 3.5823283 -0.07338992
-0.18408659 6.103635 0.45951706
0.33696413 7.157072 0.6888019
1.2535751 5.2784433 0.7435235
-1.9836636 8.631107 0.66333807
-0.47066534 13.12154 -0.47505665
-1.3876534 5.510825 0.37504345
0.91055346 3.0173378 0.18496451
1.5311518 2.8287106 1.1219718
-0.47620475 7.6496487 0.06826081
0.5703931 13.177634 -0.0358383
-0.13893765 8.420755 1.6425757
-1.5393555 3.406249 1.2073812
1.2580647 9.8164425 0.12654144
1.9935534 -0.74829495 0.32185942
-0.81693673 6.950487 0.092364594
-0.5178386 11.431913 0.50702715
-2.0342007 9.471052 0.48596954
-2.83566 9.0030575 0.7970152
0.50984657 7.4435263 -0.28404695
0.975765 7.8077908 1.2971354
-0.29595327 7.452833 0.36026627
-0.70694005 4.8463945 1.0825081
1.0300047 5.253332 0.07894452
-1.093236 2.6132026 0.58307993
-0.873538 12.563738 0.28843182
-1.0455556 4.1066685 -0.46802413
1.2491517 3.125927 0.33441687
0.4093483 1.8235638 0.6730534
0.7385627 7.6052084 0.9605844
-3.6891332 6.898428 -1.3593729
2.26853 -3.9365692 0.36986893
-1.7089884 7.125025 0.66934276
2.803976 7.5357437 0.61705565
-0.82155406 1.2500648 0.9373485
-2.3810315 -4.591255 1.2999432
1.5148985 6.311104 0.84691167
-1.6073341 -0.73182476 0.8652189
-0.26001525 12.493057 0.73579216
0.890182 2.8705225 1.2100236
-3.489677 7.272174 -0.009042537
-1.6218646 8.907312 0.588042
0.751472 9.848225 0.4242745
-2.128674 10.277632 0.24798837
0.12997279 9.443974 1.6007669
-0.75524735 8.443197 1.1820726
-2.5596914 -3.9618626 0.7409977
-1.496901 6.433255 0.9929545
1.5732434 5.5235987 0.8153651
0.082436755 10.884098 0.50555205
-0.8606032 3.4563308 -0.117583394
0.47442913 2.602374 0.6157023
-1.8105886 -1.4909911 1.4798837
-0.2246404 13.481693 -0.48850113
2.0464215 10.257353 0.5094068
-1.0404088 5.7561007 0.5913876
1.0341117 0.75260556 1.1482072
0.20894188 4.84303 0.7526562
-1.4278378 7.9511337 1.19731
-3.5317345 7.1598825 -0.95622945
1.5811667 0.921865 0.19296068
-0.13940704 8.794236 0.39535224
-2.253034 -3.0047517 1.1181641
0.34235412 2.4452977 1.198355
-0.9795952 9.1619625 1.220704
0.056804933 3.944909 0.12693486
-0.6786252 5.28827 -0.44888335
-1.8753722 9.862356 1.15031
-0.12698898 8.231091 1.2768788
-0.79529035 4.272602 -0.183074
0.2553506 12.832359 0.4523213
2.7405176 7.3889647 0.24109724
-2.1643138 -0.027777161 0.093413875
0.88831115 8.0815525 1.6158216
0.6627127 2.8780642 0.3975367
0.46472633 5.5115232 0.6138425
-0.6083224 3.0967445 1.2594242
-2.1559386 8.413422 -2.7243524
-0.593905 5.8896694 1.4785936
0.7170011 6.54488 0.7482319
-0.20838672 7.890172 0.34882337
-1.9341931 4.6097345 0.46422988
2.2530742 7.957491 0.68162966
1.7712574 8.756174 0.8306892
1.3399441 3.7889962 1.3232346
-0.14155462 11.889051 -0.4333598
-1.7380757 9.965565 0.820588
-0.07298861 5.562402 0.84299994
1.116529 1.5617735 0.13286558
-0.3631066 2.885426 0.8120624
-1.1127644 0.6220927 1.006655
1.4495273 7.0650187 0.6287956
-2.347412 6.951334 -3.2255063
-1.887131 6.9792585 -2.1979094
0.289782 7.5424423 -2.8815937
1.895257 1.35938 0.89353037
-0.5013524 3.5226655 0.52804303
-0.4939335 9.087608 -0.22634116
0.5680826 7.1225967 1.6594613
-0.17276895 12.139223 0.52325857
0.13229102 12.34823 0.11694537
0.7373166 5.766713 1.3234472
-2.0216885 -1.1364472 1.5107982
-0.23117012 6.640767 0.9297036
-0.04932078 8.208885 0.1390501
-2.6670184 6.956455 -2.3657217
-0.50304663 8.810207 1.6841159
0.06408258 5.9063225 0.14256808
-0.85036147 9.162436 0.8635068
-1.1745589 8.037151 0.15994641
-1.654439 0.46929944 1.0802946
-1.790231 4.5820503 0.08392066
0.15717033 8.68829 0.6215775
0.6370137 12.820335 -0.034550123
-2.255006 6.486498 -3.1526327
-0.812978 5.4383745 -0.08169477
-1.8549128 1.2712944 1.273849
-1.717515 2.803862 0.36263955
-3.0928245 8.691969 0.66266847
1.2450774 4.901683 1.3833759
0.46469057 10.368988 0.6142887
1.8614683 10.483367 0.7383988
-3.7068644 7.803356 0.31066006
-1.0205858 4.9294977 0.8409399
1.0110395 10.116035 0.19346619
-2.003058 -1.3518469 0.729318
1.3349829 6.6944714 0.28288352
1.180404 10.80698 0.7000644
0.7383363 8.220823 0.5577204
1.3210037 3.407793 1.313359
1.5865796 3.2294292 1.0686212
-0.063112184 8.371464 0.8838365
-1.7204032 7.49994 -3.5671906
-2.1611404 1.7048867 0.40244126
-2.7912412 -4.5456114 -0.71489716
-0.7426251 9.113945 1.5920157
-2.135312 -2.57474 1.3036654
1.042705 10.115854 1.4089677
-2.051371 3.8252788 0.42423254
-0.41908848 12.749533 1.1272436
0.9820949 0.3929816 0.87397265
-1.9755886 -3.8896775 0.8268826
1.4102006 4.7237797 -0.18042412
-3.9038649 7.3430586 -0.7961576
-2.0561094 1.345676 0.20628947
-1.4432974 3.1668096 0.7500975
0.66118014 4.6100254 1.760833
-0.7908187 3.4187438 1.3819144
-2.2159147 -0.061327517 0.955521
-0.43719774 8.55814 1.4094603
2.1589375 8.685711 0.65917397
0.9228406 5.0861845 -0.37657905
-1.2394042 6.641879 0.81879723
-0.0700676 13.715942 0.23123717
1.1644418 4.2458925 0.93610394
0.074209824 5.638489 -0.5888431
-1.5503862 2.7599778 0.7282455
1.2073741 4.958207 0.9909742
1.5651944 10.205524 0.63075316
-0.7105756 5.512085 0.53116286
0.9702468 8.732239 1.3552947
-1.6008172 8.501205 0.05741588
-0.92795503 8.342327 0.8237363
-0.4320625 2.1694908 0.56337965
-1.2284777 5.522767 0.008962313
0.41203576 3.0112014 0.6987928
-0.60271525 6.3226576 0.4465587
1.5094995 8.949602 0.53236854
0.2479716 3.6217241 1.5481381
0.547699 10.041618 0.80175793
-0.05228766 7.27629 0.7189896
-0.030422263 7.9148865 0.9843379
-1.8707008 -0.7606375 1.5792565
-1.1166537 0.21572393 0.5558765
0.10453692 11.427256 -0.08312619
-0.9553673 3.4461555 0.6204591
0.99553406 7.050434 -1.9348409
-2.239602 7.6679287 -2.08386
0.31011266 9.954021 1.1114409
-1.4440839 5.2704077 -0.23458475
1.5143726 9.721405 0.5015011
0.56819797 6.0061035 1.032563
0.7636665 5.366582 1.3472445
-0.97538614 10.266304 1.0330682
1.2793148 -0.8036704 0.25120413
-2.1706362 -4.59536 0.8948537
-0.2244294 12.950611 0.8250258
-0.92075014 6.7576447 -0.23766288
0.1003827 5.19979 -0.59077334
0.6199422 1.1260378 0.67039263
0.27767515 8.539896 -0.24131617
-1.414118 2.0608807 -0.29886943
1.3330615 4.917699 0.58713686
0.27235746 6.545598 0.4026279
0.3513717 9.052933 0.57264674
0.45737094 5.999525 -0.035283085
2.0419502 1.8867567 0.43721545
-2.9498901 6.4502726 -2.853146
1.8381312 1.0597236 1.1526735
1.0242236 7.4191656 -1.9581418
0.12682411 4.2382317 1.2226291
0.46589196 9.210363 0.20634955
0.91634905 -0.73845327 0.5580908
0.52091455 13.373375 0.27247792
2.073367 -4.160536 1.0916038
-0.7508625 2.3953562 1.2749736
0.7177545 7.020935 1.3081615
1.8496964 7.0185184 -0.9504777
-0.5044888 2.3240576 0.91852915
-0.96528566 2.5371637 1.004647
0.9268135 4.8387365 -0.027341194
-0.87004304 8.27759 1.5538521
1.0903445 9.611177 0.40745664
-0.17840502 8.027061 1.670922
-1.5086291 6.9671497 -2.0211215
0.29959285 12.612284 0.9946001
0.07094622 8.597017 0.111922726
1.1011846 3.8624172 0.6581687
1.2558308 5.6504307 0.11515671
-1.8076906 0.3657484 0.65433764
-1.0538454 7.3293705 0.55386496
0.47909266 4.4198933 -0.52214456
-0.43657666 10.155029 1.1104212
-1.8089457 2.3925972 0.54455674
0.98509586 2.2912102 1.343591
1.2380283 0.20252916 0.05007097
2.0894628 7.3721733 -0.8419608
-2.2312884 -0.07475233 0.48968792
-2.189412 2.474268 0.54729784
1.2982917 1.4981487 0.8785639
-1.1123245 4.059396 1.5766604
0.65507865 3.6450233 0.14583224
-0.45586097 3.8053246 -0.5298331
0.11617951 13.544455 -0.33278346
-0.65669096 3.0739317 -0.018484201
1.6455257 -1.0472076 1.4158609
-3.8070889 7.4961596 0.010193712
-2.007513 -1.8995969 1.4119396
-1.5068853 6.143837 -0.0810837
0.042818837 3.797596 -0.44518125
1.4788005 8.616288 0.25043094
-1.4088752 4.7497244 0.7345917
2.1378736 -1.3249142 0.6348041
1.1293502 6.596935 1.3334658
-1.6457725 3.9532008 0.41222036
-1.4815726 9.122601 1.2109139
1.6707876 9.775808 0.19177318
-0.44952527 8.123663 1.0660627
0.3288892 9.226425 1.2472758
-2.6265602 8.042006 -3.308696
0.6437695 3.522523 1.5300066
-1.158334 9.601646 -0.040665872
2.1805549 -2.2237973 0.7381048
0.4857092 2.540143 0.22687942
-2.440978 7.2677364 -2.0585947
-0.087278366 4.7212524 0.09702739
-1.1064615 10.203539 1.4282243
0.086772725 7.635725 0.35345113
0.6120242 12.655527 0.33779705
0.6452323 7.248764 0.094575584
1.7625256 4.0417957 0.8452008
-2.5631566 7.7696285 -3.1087894
1.2699363 2.2873454 0.36574513
-0.81241965 13.085346 0.82377505
-1.3551176 10.135702 0.9328673
-2.2820373 6.92628 -2.2017822
-1.4787831 2.3265347 1.2495997
-1.0537126 3.0497875 0.6552608
-0.20547575 11.435228 0.711136
1.2680168 6.2329082 1.1409976
-0.22232074 13.255085 -0.17981389
1.1063244 9.423315 -0.019471455
0.95901656 1.5677466 1.1212621
0.95300066 5.0777035 0.42226648
-1.433934 1.9630256 1.2929304
-0.6910026 3.4383101 0.9776802
0.9885496 4.6322517 1.1199446
0.7839844 1.735709 0.75450957
-1.85689 3.098535 0.7203208
0.856797 5.3677263 0.68305266
1.0655265 10.731592 1.0767803
-3.45681 7.182049 -0.4076348
-2.246859 2.0610662 0.56894743
-0.8813926 4.509162 0.961215
-1.0177438 7.8104467 0.5152414
1.2096992 6.738597 -0.062200457
-1.5269837 4.5136185 -0.23456198
0.6844251 9.442459 -0.093633115
1.3382087 7.600377 1.1975324
1.5662215 0.59292066 0.49724084
-0.5037732 5.397731 1.8438358
-1.9132628 -0.8643502 0.6454867
0.088516235 4.5447206 0.4474069
0.8282509 8.490959 0.24836376
0.39512384 8.790651 0.26974863
0.29499266 7.123047 1.3919508
-0.36653125 5.978504 0.15454867
-0.3466341 9.572771 0.2166501
1.4791389 7.473811 0.7961949
0.550063 2.787331 1.0361464
0.34203398 5.1894083 -0.05684813
-0.32108754 8.904438 0.08554149
-1.4199471 2.6931672 0.007381079
1.1254709 6.4825964 0.8500755
-0.7796068 5.690155 0.88951635
-1.1610742 5.981619 -0.106765375
0.18570542 7.3248158 1.7936866
0.5150969 9.185537 1.6350911
1.2831829 8.0368595 1.2755349
0.86425793 9.776941 0.78723896
-0.08659382 12.271492 -0.5249499
1.6010003 0.3073516 -0.17650878
-0.9300896 8.5424595 -0.22550857
0.44736683 9.653019 0.25142473
-2.7248697 7.6174755 -2.5328655
-1.721097 9.801018 0.45408154
-0.29478973 9.920528 0.73286176
-0.5571046 7.8684225 -0.2637151
1.0739896 9.033327 -0.0488941
-0.15756193 12.585772 0.057487935
-0.23661 4.906473 1.1625073
-0.0697231 7.2039185 1.4283438
-0.38139707 4.5325956 -0.5956323
-1.9291377 -4.6166353 1.2927043
-1.6157904 9.7098675 0.10157812
-0.088529825 13.167398 1.1031716
-0.6701548 2.6800938 0.11187653
-1.1881421 4.280451 -0.04023254
-1.0890367 10.727249 0.44579
-2.1267362 6.7682333 -2.900196
-1.654932 3.6841822 -0.23050004
-2.0100493 9.106699 0.628181
1.5528767 9.901487 0.916978
-0.7234621 7.0780096 0.4577254
-1.4320035 2.4808774 0.4262336
0.53367114 3.2817707 0.30568337
0.19353294 2.7808347 1.001821
0.8049549 6.1696873 0.72705853
-0.9085169 4.055067 0.16483754
-0.97556436 8.961773 0.52568936
-0.7725692 13.102203 -0.21677834
-1.350992 0.9123061 0.54922915
-1.0926037 5.0649614 -0.02034105
1.6319139 4.5873966 0.15854204
-1.6061513 0.26866877 -0.1574257
-2.2445207 7.6006145 -1.6878161
1.3712876 6.2883997 0.44619232
-0.3777219 4.8177004 1.5113494
0.47774047 1.4685547 0.80722284
0.049938314 3.4402204 1.2133741
-0.90434134 7.683444 -0.21604702
0.54410386 10.311451 1.0868187
-1.4296193 6.8887825 -3.1020598
0.24322265 5.5201445 0.18562242
0.8041775 10.954496 0.791031
1.1738999 2.615147 -0.37465322
2.02875 -0.072447166 0.31401914
-0.9883609 0.9485928 0.76118755
-1.6130841 2.8740902 -0.30113107
1.6930642 -0.77509785 0.07154973
-3.0438414 8.7268715 0.25211054
-0.7293948 12.347919 -0.2669106
-0.90870905 8.047434 1.1804566
0.5408741 7.904731 1.6232147
-0.87747324 2.6518316 -0.21547732
-0.5359353 1.7958038 0.43182355
-3.6770945 7.8222456 -0.09937805
-2.1828089 0.23864475 0.6795529
-1.2188764 7.1018763 -2.7822742
0.27511048 12.090479 0.436091
0.8705133 9.404661 1.5613098
1.8091519 7.3116293 -1.142384
-0.43817705 7.671664 0.9745001
0.5536283 5.685631 1.7027996
-0.8083204 13.384693 0.044931814
0.062918335 7.2208805 0.33263993
-1.0116355 3.0526466 1.395664
0.18149897 2.630188 -0.022379544
1.8350446 1.459944 -0.012415549
-0.41035062 5.3593283 -0.098170266
-1.2628455 7.8595924 -0.18531752
-1.708262 -1.780891 1.233278
-2.3314638 7.0569115 -3.6140885
2.061183 9.21435 0.1955677
-0.21290264 5.8833914 -0.54291534
-2.081647 7.3300104 -2.3147192
0.6931976 3.967391 0.4879281
1.2823384 5.3059635 0.38174242
2.2177439 9.720676 0.8869356
2.9721608 -4.7870207 1.6593072
1.8049116 -2.1711216 1.1416972
0.17774564 6.9505844 1.8061757
0.5907061 8.785234 1.6401052
1.4759848 2.8317633 -0.32487863
2.2135673 -3.1077747 0.8062681
-1.7621257 1.5885062 0.33991343
-3.1168175 7.121519 -2.941021
-1.2924099 7.272394 1.3651078
-1.3745284 0.24807829 1.2739172
0.16418639 12.264824 0.86530125
-1.9098184 7.0469465 -3.1261206
2.0039253 9.611883 0.22579369
-1.1432152 7.3019695 0.9940443
-0.020696118 11.944101 0.2458669
-1.2803817 0.23553908 0.172164
-2.0357409 7.4692163 -2.9059424
2.4051619 7.1120396 -0.2913658
1.2393129 1.8139358 -0.2843719
-2.8701935 8.329939 0.4863472
-1.3474674 8.720896 0.3805217
0.21711707 2.4472294 0.81180453
0.6216719 6.155252 1.3771842
-0.9601568 3.7171564 1.5626905
0.2310333 8.389328 1.3861241
-1.0338535 1.8142796 0.66439974
2.008987 0.6671492 0.3711545
0.91373587 6.8271866 1.6365275
2.5452385 8.604176 0.7970722
-1.31018 9.401455 1.3644013
0.8230698 10.674583 0.48869085
-1.3305295 7.0831985 0.74528646
-0.7404294 8.752609 0.8205265
-1.6653156 3.2073703 0.38431293
-1.1465938 6.921521 0.46118146
2.6200175 -4.0312004 0.23922509
0.4521581 6.979089 -0.3559146
2.2485027 -1.1066637 0.88067317
-2.636837 -4.30731 0.6795995
-0.26643395 8.742699 0.7766526
-0.81670153 2.9750233 0.9906664
-2.121685 -3.6160517 1.204679
-1.7746058 8.924208 0.9699272
-0.8364341 2.7346435 1.3644958
2.1429253 -3.2338474 1.1504683
0.21695733 3.5844245 0.18549222
0.8262671 2.4622326 -0.3412816
1.5968661 1.375062 1.203723
0.6018555 9.441088 0.58003914
-0.31783128 4.4646177 0.38578975
-1.6777647 4.9710245 1.0339985
-1.3593881 0.91703856 0.9646776
2.7384658 -4.625744 -0.13282782
-0.24603492 3.2252507 0.61194134
0.32247078 3.8032618 -0.17834139
-1.5312037 8.105526 -2.3318214
-1.8163264 -0.3109703 1.5543461
0.32127392 8.336967 0.33810395
-1.1592636 4.956484 0.4309026
0.50460315 12.341448 0.3342002
-2.951645 9.09202 0.45765424
0.931147 1.3396671 0.7719679
1.3229971 0.6331357 0.83771884
0.8521563 10.495121 1.3291609
2.1192164 -0.123370364 0.76650476
-2.4611173 7.2621517 -1.6798463
-0.5524801 4.085513 0.48160803
2.0001898 2.2700658 0.33356
-1.76337 10.266848 1.128052
0.2660905 6.119317 0.39296687
0.7517202 5.5037003 -0.39101225
0.9021374 4.9171457 0.7738695
-0.91271937 12.829769 0.5548129
0.8508618 6.7510886 1.0133114
-0.32573086 9.172491 1.5963342
-2.1590843 6.5799494 -2.0116782
-0.89675975 4.2617655 0.5676125
1.5403011 -1.4441607 1.25119
0.12486902 6.5854454 1.0254388
1.3380731 3.8235598 0.027769411
-1.3864443 9.670395 0.65073526
-2.605022 6.421651 -3.0565038
-0.52381194 12.4913025 0.0073858304
-1.7502398 0.62942266 -0.20020056
-0.6639086 8.89262 1.2157629
0.15191221 3.598989 0.87945366
0.26201677 8.161146 1.0558608
-2.5750618 7.8979664 -2.7414422
0.14722392 7.3255615 -0.32663321
0.38015503 3.669938 0.48903722
-0.84472346 7.4090796 0.089188635
1.8851738 9.874376 1.1182113
0.4405871 7.416567 0.37476867
-0.35249043 12.181644 -0.25813204
-1.215724 2.8518715 0.9558089
-2.5807137 6.6486654 -2.0476818
-1.1411207 7.408231 -2.5094304
0.7283685 4.7179136 -0.5135181
1.8369436 -0.80411327 1.0452716
-1.0773551 3.6566982 0.1964994
-1.0862775 5.286068 -0.34292322
-2.8771472 6.8172665 -2.7520843
-0.29902202 3.8974595 0.72057176
-0.6948892 13.489346 0.38702536
0.7596165 9.025133 0.5631434
-1.8937676 -0.44131398 0.48227865
0.96574485 5.9497576 1.0544319
-1.9259667 6.411375 -2.8210645
0.8417181 -0.2889853 0.49636298
1.4476948 9.039335 0.13319999
-1.3274748 3.680131 0.47226733
0.068393946 12.712952 0.7564182
-1.6486969 7.0592537 -2.504744
-0.90874827 12.995369 0.15279886
0.40214312 12.070677 0.051948853
-1.1939595 -0.15219837 0.79230475
0.7087463 5.2408266 -0.10639438
-2.3402743 -3.926825 1.0953202
0.8126242 4.056015 0.8447683
1.1044524 5.2405577 1.4772391
1.4635756 10.021479 1.2899315
-1.3511324 2.254777 0.045756347
-1.8789036 1.4873798 -0.0723497
2.2060952 -1.6928353 1.2778921
0.7414106 0.37489468 0.51764965
0.28086382 11.95479 -0.58384323
2.3556018 -3.6357627 0.6093205
1.5349715 -0.11160104 -0.097130194
-0.19449744 8.048941 -0.29136854
1.7645724 -0.18003556 0.64764965
-1.031395 1.9576731 -0.24946669
0.14283577 6.3027086 1.4398453
-1.4567597 5.702691 -0.20706889
-0.8384311 9.370558 -0.1512312
-0.68665934 1.5017014 0.2468937
-2.399675 8.278751 -3.036275
0.86476326 1.2421782 -0.08639215
1.5708553 4.9921656 0.09874782
-1.1690328 1.8880117 0.13451803
0.25038034 4.6362505 1.8668566
1.3185177 7.2840204 -1.8514643
1.5840261 7.3048906 -1.511488
1.8244119 7.2070427 -0.68506455
0.22923413 4.16162 -0.5532254
1.1094933 5.5062094 -0.2247797
-0.6949352 10.812361 0.34013277
1.1885433 3.2424874 -0.107508615
-0.59770966 6.529255 -0.36987907
-1.8027498 7.450596 -3.2227902
-0.5103097 2.1185102 0.14791942
-1.2893739 6.130308 0.6938386
1.8212674 0.68972576 -0.002818164
1.3409443 2.0634484 1.2342591
-0.5347916 8.395609 1.7477789
-1.094697 5.0509653 1.6141257
-1.3203983 2.4397216 0.8707658
-1.5417793 7.351005 0.04035251
-1.6192095 4.917838 -0.06322047
0.7420722 2.2138577 0.17713234
-1.6440573 8.58223 0.89515066
1.2460916 3.06634 1.198133
2.6166348 -4.5656204 0.29613304
-0.42660004 9.505295 -0.16053271
0.5038829 9.619469 0.9441519
1.9239764 0.23849341 1.3184662
2.0216875 8.786423 1.0986519
-1.5881989 6.516657 0.24442014
-0.17321035 11.5642395 0.29278123
-1.5980322 6.5783253 -2.9682584
-3.3108044 8.412964 0.41585225
-0.90743613 1.6692224 1.017674
-0.113082305 6.5431023 -0.16259873
-0.902153 4.685609 0.59679925
0.114961326 13.214354 -0.52110195
-1.5738175 -0.3153187 0.7798989
-1.4764087 6.728896 -2.3161492
-0.85579884 9.561676 1.2108719
-0.83628845 2.0034404 0.40078002
-1.1464415 0.8756329 0.0074068694
-2.3011918 7.1436787 -2.9075823
-1.3984861 0.5140586 0.78507173
2.6853456 7.926939 0.6436453
1.6244853 -0.7697933 0.45829797
0.8053067 6.0112066 1.6776958
-0.16963872 11.476961 -0.3655147
-0.6319026 5.855028 -0.11988771
-1.8411338 7.924636 0.5250983
-0.8463781 4.822983 0.20224932
-1.4769969 6.100688 1.1723304
1.3827479 7.168109 1.0930479
-2.1999254 1.3166568 1.0436766
-1.7044389 6.820856 -3.3783593
-0.49099165 13.208902 0.1236659
-1.4801481 7.519388 -1.9024942
1.1238372 -0.46701396 0.32468772
1.2046201 5.5713177 1.300334
0.79731643 3.2412267 -0.1020291
-1.5565317 8.424328 0.4866935
-3.0837383 8.312271 0.15143502
0.15031862 3.2926903 0.5082245
-1.575052 9.279886 0.8508389
1.1187141 8.988173 0.73814225
0.5733954 6.5902224 -0.3694889
1.2707393 10.405756 1.2358773
-1.2201319 -0.11124611 0.37565094
-2.3199253 -4.602317 0.45508313
-0.9969263 6.5061445 1.5686505
1.4998744 2.5656552 0.07837224
-0.56791365 4.6926756 -0.26425564
1.5222163 0.72661436 -0.21639743
0.41068828 11.037893 0.8983308
1.5784521 1.6037214 -0.24690801
1.513433 -1.318819 0.86228514
2.2924895 -4.3006916 0.29930627
1.8490765 0.020893335 0.00027757045
0.59778214 4.5536337 0.13599601
-1.5914109 7.8403864 -3.3471642
-0.45510757 8.073132 0.053482093
0.2259211 8.166023 1.7473702
-0.45141226 3.8134317 1.0998561
-0.9400594 2.2640967 0.09663415
1.6914144 0.81399393 0.8810208
0.5359354 7.489393 1.6318936
1.7096786 4.8242702 0.43818724
1.430218 2.4363823 1.1160922
-0.11353272 7.4063816 -0.0051164096
-2.6501927 7.156047 -2.7326517
-2.69762 -4.2002735 0.2915665
1.7767198 2.910231 0.8203391
-1.989244 -4.2810793 1.5314915
-1.3921735 7.5428057 -3.2717996
-1.2251406 -0.64650714 0.8645928
-0.8355129 3.3116384 0.2718441
-1.5519586 -0.355596 0.30817562
0.71294665 6.6050806 1.3483179
-1.8470771 4.9997416 0.27127105
-2.5878348 7.6032495 -2.1823106
0.8629484 2.5282555 0.3785711
-1.298605 4.4229136 1.085886
-0.25895697 5.045779 -0.2725451
-0.63639593 11.980263 -0.05349972
1.5782523 3.3167648 0.45590323
-1.2335131 7.441819 -0.16615742
-0.800817 1.2039969 0.48795682
-1.0276158 5.351287 0.29233426
-0.96165204 6.89441 0.8254726
2.5659938 7.723235 0.2147955
-0.2825716 5.375127 -0.5370362
0.15432253 9.398737 0.50821304
-2.2760863 6.8934116 -1.7714126
-0.42606032 12.796717 -0.69227254
-1.3717377 1.506047 0.11564863
-1.088346 2.6092763 0.1466819
-0.5587621 5.668624 -0.444637
-3.4987974 6.8201513 -2.785801
2.2922173 -2.8487144 1.1004744
-1.6135213 4.591173 1.2417486
-1.993557 1.837671 0.089059174
-0.5590091 12.408819 -0.6557075
-0.67698526 5.7468224 1.8245323
-0.8051226 9.604654 0.21959054
-0.38906205 5.8439436 0.81070817
-0.05133971 6.7487774 0.22977144
-1.1711297 9.446228 0.97416973
-1.5184119 2.464172 -0.31040043
1.9054639 -2.4505854 0.9137864
2.0577483 -2.5143085 1.252877
-3.1324644 7.2403383 -2.2534623
0.7534883 3.961255 -0.14522299
-0.9702029 6.1669064 0.48067558
0.7621027 7.1432486 -0.24482068
-0.67117095 9.783249 -0.073201254
-0.4612553 9.884386 1.4726802
0.4549091 3.9902134 0.17542678
-0.82175195 6.1672 -0.29355198
0.9802667 5.277149 1.0504816
0.8440068 10.220619 0.5770798
0.9493252 6.9609528 0.19288713
0.85738444 0.07046713 0.35477257
-1.616323 8.140669 -3.0330658
1.0420709 3.6443248 -0.13620573
-0.9271977 8.124918 -0.21495426
0.49944872 2.3442326 -0.1534271
-0.594409 11.196341 0.22234416
-1.5036421 5.411907 1.1704199
-0.54266095 8.295223 -0.25788283
0.38918132 9.6744995 -0.09317522
0.23470882 12.844347 -0.65273523
-2.2260818 -0.37043202 0.21762776
-0.1325089 4.3206635 0.065547556
-2.3408604 8.348511 -2.3733716
1.5088089 -0.107470214 0.9887005
1.8925328 0.33595312 0.19899234
-0.084595114 3.7816133 1.2689054
2.1253061 0.9620675 0.9254148
2.1571755 1.1267171 0.56266916
1.477375 10.145063 0.23993781
-0.2795286 5.684499 0.48820686
-0.5167929 8.690681 -0.25974494
-0.67934763 3.783742 0.7619324
-0.49470896 3.1688046 -0.39726162
-1.3404264 6.508257 1.3308272
2.2990227 7.544036 -0.049434576
-0.78266704 12.455992 0.65275407
-0.6430687 13.395588 0.7673129
-0.20413822 4.135248 -0.55688953
0.47440833 2.7088113 -0.29200238
1.048758 2.4021034 1.0233762
1.2742007 5.086808 -0.19304368
3.0920186 -4.569009 -0.1697907
-0.52798676 3.7251778 1.4800022
-1.1604342 3.6082869 1.1847534
1.202529 4.183115 1.4012814
-0.62950444 9.754433 0.5530325
0.33197558 6.943778 0.32358837
0.5739651 8.640669 0.5860145
-1.3594933 3.7828932 1.466845
-0.8053843 2.0673103 1.1157382
0.37417006 7.313465 1.0241051
0.9222219 9.505566 1.1429267
0.67335296 5.5990095 0.9838611
-0.7465304 2.222107 -0.20093402
-0.6177788 9.51399 1.5652008
1.5247738 4.8374815 1.0793674
0.20170915 6.526206 -0.4756024
1.639097 9.164795 1.2028918
1.013552 3.5969863 1.4161398
-2.6453376 6.955989 -1.8632731
-2.1166449 -0.6983255 0.12767905
-2.183906 -1.5468311 1.3436098
-0.24816349 6.4687967 1.7451882
0.8779142 6.781172 -0.24900103
1.8699672 3.0971665 0.09779018
-1.8654087 3.8386712 0.797456
0.94648623 8.288895 1.2756643
-1.3645661 10.444298 1.2432692
-2.0462017 -3.2708087 1.2534254
2.302116 -1.9576588 0.97971165
-2.9789248 -4.5751295 -0.3599074
0.8144835 4.2523174 1.6248043
-1.9530516 2.7073307 0.8082862
2.008739 2.225235 0.75222075
0.033690028 9.693327 0.8486427
0.45518684 6.4510107 1.1388414
0.87990975 8.517269 1.6280808
-1.9261177 4.2249413 0.24942043
-1.0292635 8.760189 1.1360137
0.5187727 3.9471612 -0.55248785
1.5245905 4.3615646 -0.095516056
-0.8002112 6.0750427 0.8602177
0.699883 9.092232 -0.1566101
-0.45358825 3.1459212 0.26097012
1.8114469 0.47855836 0.7695041
1.3610024 1.8697343 0.4545166
-1.8569427 8.101034 -3.3370829
-0.5752859 4.5070343 0.6646048
0.3795579 10.062246 0.38217366
1.7074924 4.1716537 0.17146313
1.2258339 7.5382586 0.048626624
1.2595289 1.3802528 -0.24765965
0.25756347 11.710897 0.17286238
-2.6368842 8.193949 -2.182528
-2.5430284 -4.708907 1.6842132
-1.6614828 10.33581 0.7139598
0.57784665 10.042883 0.05375146
2.3328233 9.329206 0.886569
2.114129 -0.13439482 1.1765349
1.5098922 1.3556759 0.14221877
2.5780115 8.282072 0.62292016
-1.7648687 8.211243 0.7794694
-0.12660801 11.194769 0.25585902
-0.03245931 9.872749 1.4732051
-1.2010684 8.122515 1.4747779
-0.14025106 6.0169725 1.4961181
-2.3688707 9.68033 0.2234225
1.0892246 2.8990598 0.5662519
1.3140931 4.156019 0.2509588
1.1910529 1.2234995 1.1285894
-1.6294715 7.754592 -2.423617
0.1892333 4.9307327 1.1351509
-0.20406407 3.1470952 -0.14746758
-1.75208 8.299747 -2.6813378
-0.17524576 3.4070234 0.25411862
-0.11027737 13.36326 0.21296164
-1.1824112 4.486902 -0.43552995
2.2324538 -1.2688446 1.2332423
-0.7042177 9.907894 1.1158679
-2.4261868 7.943597 -1.8348467
-1.9911108 -4.2304707 1.0865386
-0.6614076 6.484767 1.8109727
-1.8942249 -0.8730161 1.1410558
1.5041678 3.6291833 -0.2744602
-1.7384117 -1.6066034 0.9255414
2.0762486 -3.4737682 0.81538665
-2.4147534 9.242889 0.933988
1.0676267 1.9660225 0.11948997
0.05621794 7.0208073 1.0283058
1.6516638 5.115382 0.80610573
-2.6919847 9.415087 0.30395836
-0.49001867 4.1267834 0.11310342
2.6978302 -4.185997 0.90806246
1.0180862 4.2678843 0.5203538
-0.033560485 7.481571 1.0908182
-1.6923957 3.0776339 1.0765753
1.9819951 2.632852 0.6039244
1.5039732 4.0613413 1.119204
0.8450774 4.2707195 1.2012713
0.014643633 4.577176 1.0812252
-2.648336 7.596122 -1.7680852
0.887372 7.281739 -2.2678294
0.7697263 4.488159 0.80767107
-2.2672262 -0.40289563 1.1227491
-2.187602 0.64511776 0.52433157
-0.015216956 5.355344 0.49170166
-0.50352454 6.8449707 1.8249872
2.3609643 7.619278 0.459926
2.58469 -4.592416 -0.6850802
-0.71607554 5.0299444 -0.16136953
-0.26512742 9.501211 0.65174246
-1.7405038 -0.72142315 0.19282463
-0.15382051 4.6518946 1.8663757
-2.746491 8.504595 0.8019432
1.4976215 0.45970386 0.17424944
-2.645112 -4.6103487 0.09238306
-2.525392 -4.2476377 1.0967841
-1.6262937 7.251877 -2.903255
-1.5558021 3.5403934 0.15883663
-0.9098773 7.8314524 1.5481412
-0.5231583 12.390141 0.98370445
-1.4066942 3.9040265 0.050074488
1.7397661 1.274955 0.47670388
-1.6720567 7.2208643 -1.7830145
-2.7662992 9.426727 0.69778323
0.026526973 3.1813178 0.8745575
-3.3766103 7.632269 0.13554987
0.005372217 13.158951 0.57433957
-0.48182648 10.520578 0.12580779
1.8960278 1.8814952 0.034649715
1.1234186 5.98046 -0.08227621
-1.2976677 4.708663 0.04886023
-1.5143735 7.5794306 1.0906117
-1.6523118 9.356083 0.4618163
0.61987865 5.3683386 0.26310188
-2.9659648 7.806838 -3.1305685
0.60814536 8.588938 1.2754538
0.84079015 3.3206754 -0.48960853
-0.917382 8.578741 0.45634294
0.2606303 13.03244 0.94963336
1.4187586 7.4303074 0.38569593
-0.1971331 5.36049 1.1762388
0.23560205 7.5292835 1.392117
-0.08999801 4.9312277 0.45090723
-1.4396865 5.0711737 1.3392048
-0.9032749 5.8620453 1.23979
0.83844435 0.77360034 0.76278293
2.0522823 8.394884 0.9208033
0.24578628 4.5505037 -0.18704388
0.92115116 3.2827582 1.3084016
1.6548009 2.0985484 0.26006526
-1.0340493 5.1251926 1.216429
0.26981533 12.314077 -0.69018686
0.10146016 8.017981 0.58479404
1.9289079 3.0564432 0.48922062
-1.1938038 2.0755062 0.9554858
0.47752953 3.1369424 -0.43505085
0.028439358 5.58854 1.4755204
-0.18759 11.7724285 -0.047392525
2.1942563 7.079131 -0.6677911
1.1418672 5.9195576 1.388108
0.3071168 2.835823 1.3629181
-0.54035497 8.968697 0.48812658
-0.24697188 10.23786 1.4228148
-1.250241 9.231644 0.6107764
-2.5421214 7.365075 -3.2061658
-0.047331147 8.630985 1.2247484
-1.2073076 10.806885 1.0897777
-1.0966439 5.3428507 0.67013717
1.0283594 9.101662 1.1311777
-0.6701633 10.466532 0.5389185
-0.49528754 4.8102407 0.41371816
1.2236288 2.6821775 0.30450022
-1.6365612 4.211542 0.94429123
-0.1723085 6.526272 1.3655164
-3.0393248 7.870981 -2.7322664
-1.5021365 -0.71606004 0.48946714
1.6002395 5.6216593 0.3990081
-2.0120053 7.9173365 -1.8202131
1.5073996 0.1410912 1.3286138
1.1637487 2.6414495 1.3043909
0.2466659 8.597988 1.724133
2.3592696 8.073074 0.31817883
-1.7053611 4.1568108 -0.12202117
-1.344816 4.749303 1.4999442
-1.6179645 5.7495785 0.9960338
-1.4480634 8.072811 -2.697246
1.8317189 3.6744142 0.71265054
0.80919886 2.7950583 0.7776301
-0.7642691 8.371979 0.10749206
-2.5519052 8.3182125 -2.6755548
0.6757175 3.1657176 0.9876934
0.45912898 3.3889856 0.75961256
-2.0511127 2.633853 0.22443843
-1.8634434 8.71306 0.27808052
0.029063255 6.3778305 0.6909766
1.5391183 1.1787281 0.83912516
2.2888374 9.422308 0.5190054
-2.2676349 8.849712 0.4014024
2.21979 -0.7844827 0.6690682
-0.42442423 12.887402 -0.12622967
0.4252483 12.556728 -0.459862
-0.44182646 4.542901 1.0463827
1.247935 9.297422 1.4116945
-0.80744797 6.2678394 1.294301
0.27338988 7.1390095 -0.014888387
-3.8396392 6.947012 -2.0344357
-0.22591603 12.121851 0.9105097
-0.29940397 7.2591352 1.7699301
1.3376758 7.085932 0.22774461
-0.35450405 7.246417 1.0650232
2.1310477 -2.0988827 1.274679
-0.3283556 9.708324 1.1167977
1.4238601 4.1127625 0.6292572
-1.0008967 4.0969095 0.88186073
1.1484985 9.192844 0.3559454
-0.041377448 11.987827 -0.81733906
1.7971516 3.9261432 0.43205506
-2.7124372 8.576246 0.20807147
-0.6583072 4.581378 1.3916998
-0.21533385 2.7942982 0.041654855
-1.8014512 5.3806324 0.42907518
-0.17863294 13.670271 -0.13832054
0.49959755 4.7078495 0.54497063
0.099680796 9.039473 0.17386281
0.48078114 12.472675 -0.06573463
-0.51871145 6.0951385 -0.4742924
-0.87358695 6.4402466 0.80180335
1.4704387 10.584589 0.94486463
0.2766738 7.964204 0.121428385
-0.07473378 5.396489 1.8420148
0.3452124 8.305418 0.6993737
0.5285394 3.9107342 1.6521077
-0.8849175 10.441273 0.17771146
-3.6023216 7.46647 -0.69573045
-1.8965015 6.570321 -3.1873612
2.1824093 -4.3177986 1.44755
-1.6028397 5.766243 0.14585492
-0.018543847 12.816322 1.1488068
-1.5610375 1.8415396 0.061273947
1.2478302 4.871867 0.20913717
-3.4064026 7.6775084 0.54293513
2.4158225 8.989729 0.5858077
-1.0992312 3.3176403 -0.395086
0.037777446 6.8484564 0.63778806
-1.343395 0.66441596 1.3042178
1.10025 0.6269411 0.5168601
-0.10828456 11.0911255 -0.14675736
-0.648124 3.1478815 0.6605853
0.9102739 6.5475264 0.11398241
0.20626605 6.1242723 1.0875769
0.6452365 1.3688684 1.1001561
-0.7448461 7.191807 0.84937036
0.40019536 10.556757 1.3240075
1.4155519 5.964795 0.22451004
-1.6221826 8.130947 0.157478
-0.6321614 9.329533 0.5165148
-2.1172943 -0.49239284 1.4500127
2.6107254 7.4559746 -0.14623806
0.46551868 4.2104435 -0.17197862
1.6269441 1.6037135 0.69972575
1.8581944 -1.2043517 1.039222
-2.829094 8.144121 -2.5336032
2.1965876 -2.694284 0.78589785
0.2534169 13.539234 0.4518407
1.8353312 9.901665 0.63491046
-1.7707419 6.614765 -2.1108742
-0.04838282 5.160145 0.10307704
-1.8610873 -0.3771388 0.022368059
-0.17001408 4.6179934 -0.25452822
1.2108881 10.449411 0.37477255
-1.6044474 7.66199 -2.8780255
-1.3294322 7.5611286 0.70437133
-0.5688235 10.170912 0.0042878687
-0.2293241 9.234663 0.326693
-0.44555262 8.208086 0.391204
-1.6628332 6.520976 -2.5473185
2.3779473 -3.4673653 0.9649602
-0.8947433 6.624955 0.43593568
-0.9118849 3.7359533 -0.48924416
1.306169 10.16263 0.9323659
1.3042607 8.899111 1.3619244
0.16335788 13.398308 0.85859394
-2.9986157 7.2506533 -2.6182332
0.49703765 8.493881 0.05199998
1.1302948 8.803009 0.36871463
0.93810874 5.5551605 0.36008233
0.997717 6.793818 0.5604372
1.238792 0.26280683 0.47487152
-0.15834597 9.342302 1.0281696
-1.7995639 2.1388574 -0.16149727
-2.1652503 9.827685 0.61422956
-2.0855594 -1.7823923 0.79234123
2.0646734 9.083656 0.65837264
-0.15473059 6.243498 1.0953581
-0.7956016 6.120426 0.12845606
1.8110366 0.096495554 0.9673073
-0.64907026 1.5205886 0.6861751
0.18142086 7.7570686 -0.3025552
-3.2367845 6.5363417 -2.6664028
0.12316947 4.9422894 -0.25019932
-2.0574765 3.3869677 0.5018537
1.5378189 -0.33693564 1.3679335
0.695372 8.395117 0.9343221
-1.6817262 5.3741417 0.04836183
-2.4577785 7.929018 -2.3414783
-0.5777733 6.6693344 1.4445882
1.6169226 1.7563152 1.0544653
-2.0740175 2.3041096 0.86335826
-2.0960255 0.93755686 1.1881402
-2.1390014 1.9613118 0.9435139
-1.2282448 7.6691027 1.4661155
1.2320831 1.8760507 0.8871825
-1.6324162 -1.0824823 1.4759116
1.1509864 9.838526 1.0938829
-1.032707 1.5688784 0.351502
-2.6214905 -4.6184444 0.8993045
-0.48665416 6.028702 1.1405125
-0.26958984 2.5268688 0.67717254
-0.22566831 4.473137 1.3714662
-0.7149459 8.813601 0.12554058
2.0239964 -4.6166296 1.2603323
-1.4725075 1.2578459 0.86713064
1.1898081 -0.13510576 0.21211505
-2.4214296 7.512844 -2.8409796
1.9010613 -1.394063 1.4154301
2.3184042 -2.4012556 1.0220656
-1.7045436 3.5622988 0.5468646
1.5233424 10.637413 0.57139623
-2.8232884 7.4975395 -2.8981218
-0.53686726 9.303795 1.2244797
-3.7368994 6.800006 -1.766645
0.16075575 5.324584 1.1471841
-0.50609803 4.94471 0.7820624
1.124747 8.036184 0.580968
-2.0272884 9.907167 0.1934698
-2.6275625 -4.334858 -0.17159155
-2.3979716 6.458544 -2.3258948
2.0875778 -4.253392 0.6635426
