0.3941378 7.7027187 -3.9264421
-2.147873 9.949484 1.1791122
1.6229322 2.1128507 0.55935
-0.5925945 7.842656 -3.7949238
-1.5650036 10.48054 0.52779853
2.1512327 -0.40727818 0.8930135
0.24834055 4.014061 0.43379927
-2.0404172 -3.9114351 1.4013801
1.1311674 9.63484 1.484045
0.44386673 5.798048 -0.51914525
0.87624097 7.6459026 1.6377718
1.1264708 4.470873 0.054233864
-0.9865736 4.990491 -0.484962
-0.76858616 8.018593 -4.0721526
-1.6961162 7.4678354 -3.0252705
0.22909829 9.21591 -0.14566258
-1.44066 9.994847 1.4520514
-0.85751057 6.9205656 1.6479928
1.429708 5.39925 0.030200087
0.54694426 4.7951097 -0.25990045
-1.2094562 6.7672567 0.0970646
2.0953054 0.3519035 0.90699446
0.19353342 4.403328 0.6651368
-1.374259 1.6282766 1.3539782
-1.3011484 4.4470434 1.516099
2.2091198 -3.9286928 1.3501816
-1.2812467 4.2005024 0.33250296
1.2386389 2.7918801 0.8175814
-0.62875605 8.523376 -3.3330646
-0.7094728 7.6829014 1.2002294
1.3433082 5.8439074 1.0420287
0.7545347 5.6279526 -0.056289546
-0.7368542 3.795854 0.22534734
-1.1892688 10.954397 0.89345443
-0.51631534 7.940833 1.4410895
1.4847708 4.3695536 0.8653884
-0.8671006 5.4539623 1.312427
-0.7494055 2.7737164 0.7307234
-0.62400806 13.011154 0.6661488
1.3356797 8.455267 1.3008606
-2.4082885 9.932329 0.4971335
-0.75521195 10.06752 0.44913298
0.74092865 2.952691 -0.47070736
0.82490504 3.8709536 1.4647181
-2.3029146 1.8247373 0.8625846
-0.64388025 4.6889973 1.7657964
-0.5621276 7.2531595 1.8107882
-2.186245 1.1445036 0.30210596
-0.68291306 6.417143 1.0547203
-0.4617815 4.6131706 0.015804954
0.41389424 11.0083275 0.60074735
-0.3671049 13.284725 0.6413359
2.2478776 8.885952 0.17649889
-0.56332743 5.0053625 -0.61549175
-1.3603582 9.604046 1.4882135
1.1465163 7.343279 0.87987673
1.9469305 0.6974714 1.0661333
-2.3735065 8.647613 0.6054355
-0.17298785 9.089924 0.7505257
0.7462002 9.768358 1.6076968
-1.865217 0.91806984 0.47385854
1.6169624 2.4575973 0.8750068
1.2883632 2.1749172 0.7325024
0.61607504 2.654512 -0.057954475
1.4273291 7.308648 -1.6168809
-1.4163377 4.624204 0.9070424
-1.2574782 0.12348007 1.1825993
0.8608401 2.1328588 0.9091878
-2.066163 0.3412577 -0.04047238
-0.2558841 5.708637 -0.297804
0.19680345 7.248084 -2.9865074
-1.3600733 8.291948 -0.13856646
-1.9467878 2.055853 0.5674726
0.6746422 1.777098 0.35527557
2.4783807 8.239193 0.6922612
1.225384 2.0232177 -0.004720062
1.5753965 1.9420741 -0.24804491
-0.74851537 8.074434 -2.4389524
-0.2954483 8.8449 1.3027489
0.5518261 10.773741 1.2196887
2.7926145 -4.6152544 0.48107243
-0.71319187 2.4633012 0.4752025
1.1038704 -0.7130166 0.98110354
-0.7731098 8.1256485 0.43612927
-0.6377387 11.678863 0.34483433
0.94737726 3.405416 0.1413214
0.8355768 3.7181492 -0.60280824
-1.0402603 8.06331 -3.7908535
1.2997797 0.9886571 0.4861794
0.097769484 10.816027 1.2345631
0.55033326 4.3070574 0.43686378
1.4703149 9.411318 0.53909194
-2.040204 0.7564759 1.3205206
-1.2681618 2.2322922 0.52608216
-0.5875008 9.198538 0.2014979
-2.3114939 -4.5837708 -0.056670047
-2.2103615 -4.603859 1.6787231
-1.6692498 0.00802409 1.0813422
-0.84372175 4.6191616 -0.5899167
-0.8884536 8.833927 -0.20807889
1.0588615 5.636858 0.8848263
1.068238 6.2554235 1.4705725
0.78416026 6.0306387 0.09583078
-2.4973192 -4.569952 -0.45953548
-1.6739962 9.385284 1.2987604
-2.4258533 10.029413 0.8941978
-1.403856 3.494042 0.78659356
-0.1739755 6.977968 -0.067032054
-0.3665148 7.6088505 1.7495508
-2.023139 7.205327 -1.9545934
0.15311083 7.8608837 -3.5030127
0.027204951 8.100452 -3.1589584
-1.4793715 9.676506 1.0651879
0.5334004 6.6138773 0.34389198
-0.75272274 4.0059195 1.6230993
2.463089 -4.2183466 -0.06462912
1.198849 8.22887 0.08637309
0.08149636 8.064266 -0.29261088
-0.35361755 5.020549 1.820514
-1.3329694 1.3281906 -0.14346075
-2.1585264 -3.2347827 0.9542978
-1.7880847 0.8534434 0.87824047
-0.6489055 5.583291 1.0659246
-1.4794917 0.6307803 -0.047006957
0.84006214 6.4651756 1.641962
1.4506202 8.141375 0.35351264
0.116341576 8.953066 1.6438565
1.4551368 0.09863934 0.23502329
1.9735153 0.29753238 0.52559364
0.65519094 7.142725 0.47102708
-1.8523586 3.317391 -0.14548087
-0.94012177 9.16827 0.28635508
0.6571562 7.4792433 0.66262555
0.8659929 8.299345 -0.1604439
0.44965822 9.525549 1.6120744
0.5329445 4.7836113 0.8866881
1.5321578 0.34460056 0.51161003
2.1506848 -4.207546 0.6546997
0.52282584 8.327301 1.6518989
-1.0770414 9.343086 1.6295522
-1.1479132 4.5619555 0.23962402
1.4560027 3.981598 -0.2915355
0.7690296 0.849628 -0.013133805
1.9296138 9.577545 0.6192335
-1.042052 7.679578 -3.987721
0.32880193 8.825062 1.2922444
-0.21789318 4.291712 0.7282189
-0.12810645 10.686068 0.92130697
-0.3914501 12.594769 -0.19078517
-1.298521 3.142201 -0.34004807
-0.1270569 7.2782874 -2.3018909
-1.8132999 9.487347 0.88182354
0.7003672 8.827549 0.9521984
2.4443278 -4.5909786 -0.32165432
-0.6688324 13.512594 -0.12762123
-1.3415711 2.536182 -0.32910645
-1.452534 7.923482 0.551245
-0.27912968 9.910332 0.00049199763
1.0467198 6.045763 0.34810764
1.1167433 4.7088385 -0.41414636
-1.0493069 7.242092 -0.27747822
0.27575743 4.5132847 1.3924828
-0.5346112 13.620949 0.48638034
-2.5664716 8.896364 1.1366048
-0.18177843 7.7082157 0.66626596
-1.1731689 0.22380328 0.8088144
0.08989896 9.3797455 0.22452125
-1.9903419 -0.2571231 0.88343406
-1.5015666 4.1736937 -0.3601455
3.0415955 -4.5916204 -0.5679405
-1.4130185 5.0212855 0.9275919
2.4954376 -4.592761 1.2189732
-2.2022228 -2.4060254 0.92799926
-0.5870148 12.791119 1.2139682
2.6290412 -4.5856075 0.84569466
-0.74104977 5.074003 1.762047
-0.521489 12.155949 -0.5884181
0.5003581 2.209887 1.2218645
-0.7552726 7.9494467 0.80836594
-1.5282475 7.561058 -3.4171057
0.82363117 8.940819 1.6402768
-0.66567945 5.977641 0.44009203
-0.84118235 5.4697685 1.6902516
1.5464971 8.25885 1.0663689
-1.465033 5.20422 0.1688441
1.0584288 7.431258 1.2818084
1.7285101 -0.91568315 0.6850779
-0.08874892 6.925026 -2.4959674
-1.2621796 6.914096 -3.1072416
-2.067864 9.538576 1.2053959
0.02094293 2.556706 0.26108664
0.4996959 5.196145 0.9371207
1.3404129 3.3483987 -0.0116712935
1.6875436 4.3191423 0.50796914
-1.0886788 4.7905207 1.6259928
-0.046799652 5.1435394 1.3799148
-1.7616954 9.41242 0.17893156
-1.3390024 9.147024 0.29166132
-0.29808104 7.6872463 -0.3843493
0.41911685 4.463835 0.9946494
2.1811924 -4.603862 0.84648204
-0.38047415 7.8848753 -4.183571
-0.008903015 8.803896 0.96880114
-0.4964468 7.1857195 0.008506531
0.5010371 6.7070856 1.6397016
1.0540221 9.979429 0.70878553
-0.625713 2.8548608 1.101366
-2.136949 -4.2650633 0.65994024
-1.1618679 7.611144 0.1526505
2.4751706 -4.1962156 1.3113735
0.110482424 5.828006 -0.27377874
-1.5702844 -0.06640175 0.20319423
-1.4008523 7.4517813 -2.7279537
-2.3047204 -4.2411337 0.19242007
0.3734913 12.189719 -0.16590549
1.1182208 6.9121714 0.8890805
-0.23733008 4.1787624 1.1201413
1.4604003 1.6639986 0.09758124
0.21873316 5.0573378 0.3066516
-0.3121033 3.5423102 1.2623377
-1.4650471 0.5815046 0.57819295
2.0670033 1.5224023 0.5641359
1.9797325 9.062229 1.1149616
-1.6016653 7.7816353 0.9330802
-0.75289893 10.214043 1.5343916
2.839982 -4.2627068 0.08534022
0.14322188 9.959654 0.050013922
-1.610456 1.0111771 -0.2130023
-0.17503792 5.1027775 0.7380699
2.867548 -4.5633965 -0.89495516
-0.99092245 6.723097 -3.3360982
-0.3913012 10.234756 0.54461825
-0.68452525 7.6310062 1.7458682
-0.16771811 7.859598 -3.761836
1.8764508 1.794833 0.82170737
-1.1361082 9.0150795 0.9854146
-0.7851445 7.721714 -2.7437968
-1.016814 8.136135 -2.7679873
0.6099396 2.5941343 1.3135841
-1.2006162 8.42402 0.23789167
0.46356547 4.149913 1.2952199
-0.5698869 11.753983 -0.08156155
0.88997877 1.0646398 0.449777
1.3769703 -0.96765304 1.2454848
0.0585299 12.704876 -0.55651546
-0.4223582 8.111404 -3.6124883
-0.56178284 10.699791 0.9239993
-0.21747112 12.8360405 0.5684972
-1.2828627 8.141127 -3.0559263
0.46897447 7.866352 -0.25612867
0.9027772 4.6340313 0.37664878
0.754071 1.9506829 1.2651184
-1.0021138 0.9205061 0.31253397
2.1342707 0.674248 0.71210456
2.3719025 7.45665 0.5998149
-2.0435252 3.1645727 0.18608844
1.0125887 2.7393112 -0.17275986
-1.4471073 10.040871 0.66017866
1.6447105 -1.784775 0.917289
0.41928887 7.6731663 1.0215359
-0.8530364 10.915575 1.1889946
-0.34371918 3.1841297 1.0322104
-1.3283839 -0.45918143 0.65408695
1.3444932 6.6616926 0.6273838
0.41326922 7.292177 -3.824676
1.6673341 9.63612 0.8612238
0.23833185 13.441944 -0.2619
1.351325 5.214075 1.1098251
-1.343116 10.459913 0.8919854
-2.5400095 8.056917 0.70035005
-1.8169553 4.926097 0.6946881
-0.95141625 6.9414673 1.2814286
0.9192394 7.328676 -2.3382187
-0.1394831 2.9399285 0.16264522
-0.19574249 4.6894617 0.7010571
1.1035516 8.401575 0.53667784
-0.28080183 7.0174694 -3.5212977
-1.7873983 -1.8967311 1.0146897
-0.57925344 12.823756 0.38931674
-1.130712 1.4549763 1.0998452
-0.638047 7.016431 -3.0242562
-0.8177968 4.983926 1.3991455
1.1891774 0.42661524 1.234952
1.9247649 10.057354 0.3212927
2.5980453 -3.9297495 0.6583295
1.359282 3.647521 0.26080418
-0.92965615 5.9119635 0.07759647
1.2286949 1.4040143 0.43891042
1.3317852 -0.40848827 0.63700926
-0.3132704 5.7663193 1.0780405
1.4870439 5.9459324 0.6458149
1.8927946 8.886759 0.29101557
-1.5352414 -0.107224524 1.4365451
0.60248065 2.1731544 0.5599599
0.33206612 4.7839775 -0.66767204
-0.6141678 6.734208 0.66014266
-1.7823215 0.49016804 1.5311439
1.6514568 -1.3740289 0.7862941
0.68912005 7.3600245 1.2717154
-0.8166456 7.8322115 0.13524264
3.0200057 -4.58782 0.18021524
-1.092427 9.849146 0.48061025
-1.6875825 2.1949244 0.3074314
-0.15673313 10.520983 1.3431933
0.5253223 1.942738 -0.15868318
-1.4274352 5.488121 0.6868428
-0.309868 7.0385942 0.4017002
0.4112333 1.4623208 0.39723045
0.6871073 10.514299 0.93021536
-1.398345 1.7069969 0.8922342
0.8677771 2.071001 -0.35832053
-0.8326982 6.5149117 0.019155126
2.7520165 -4.3930826 -0.3531552
0.09018864 3.9725013 1.4558201
-0.3108788 6.955611 0.79721355
0.023981873 12.168552 -0.08371076
0.5407573 1.5533121 0.019038815
-0.48888877 6.3555756 -0.2256113
-1.6612225 1.2687366 0.1769417
0.5862949 12.928907 0.22932053
0.38852018 4.9959917 1.3606682
1.1059799 0.9655056 -0.26398885
0.67819333 10.349161 0.3050259
-0.1970557 13.637669 0.7395468
-1.6809666 2.2939262 1.0777752
-1.4342234 1.85955 0.49624407
0.74157476 9.377432 0.3610934
-1.2176487 6.2414618 0.98403144
-0.27846915 7.2904806 -3.1417074
-2.5243888 7.191119 -1.0572503
0.34889966 5.4383774 1.2897984
-1.2207057 0.6193232 0.24057081
-0.57420695 7.2334833 -4.185195
-0.50732493 6.77668 0.22368588
0.8691484 4.207531 -0.5524124
-0.21421787 7.7605896 1.1986811
1.1282412 8.64743 0.009374337
0.8316337 6.298524 -0.22940713
0.98666024 4.515911 1.4930677
-1.3333565 4.2414217 0.7125212
0.774611 3.147841 0.47236145
0.060762994 5.7833576 0.48593432
0.014517829 4.218213 -0.3055265
0.27630764 6.285594 0.8416605
0.5623232 3.0735703 1.3242085
-1.2437572 3.3286252 1.4508145
-1.3546548 3.5290594 -0.05902853
1.202873 7.800687 0.9125078
-0.06582528 3.6888714 0.43747824
-0.37366503 8.301224 -2.543766
0.21634841 7.70175 1.7347806
0.37185317 5.568488 -0.13180575
0.6361619 7.7624035 1.3018835
0.25005 13.572727 0.15596643
0.4037826 6.842393 -3.235835
1.8086494 0.0031217504 1.4218531
-0.48970395 6.1453905 1.8309639
-1.2329288 5.4711304 1.0307484
-1.7111757 1.4065998 -0.21800208
-1.1857138 9.497164 0.35081416
1.6799495 8.638582 1.0570409
-2.6460338 7.7023916 0.5789257
-0.85158515 11.035345 0.7490175
0.6196983 4.609887 1.3146794
-2.1755013 0.759343 0.9195038
-0.50357985 5.71955 0.09170312
-1.3342509 5.8557997 0.81042194
2.2495427 -1.2575004 1.1873348
-0.6256926 2.0965319 0.80743057
-0.2104797 6.868623 1.2053418
-0.8099053 5.2061186 0.17260212
-0.083936125 8.155565 -3.4923017
-0.78665453 7.4529495 0.3528958
-1.2286441 2.6690693 1.3410969
-1.0829136 7.4584274 -2.5204577
-0.6920291 9.580936 0.96986115
0.081711724 10.366144 1.0414393
-1.8371603 4.5856285 0.8653065
-0.4005472 7.049162 -0.44257396
0.006161513 10.447081 0.58452916
-0.33682758 6.8699675 -3.1766481
-1.5647051 3.4045687 -0.3523165
-1.684871 1.918988 1.1234226
-2.3859582 -0.67720795 0.92583096
-1.0360146 1.0179663 1.1146021
0.14313763 9.294346 0.95032215
-0.41625947 10.926849 0.20488924
0.6452929 7.706415 0.06809308
0.041575454 13.2252865 -0.03374324
-2.150723 3.0369473 0.5344156
-0.07539308 8.3639145 -3.8039737
-1.5661564 7.720689 0.17737845
-1.3794987 4.963043 -0.34454536
-0.38957262 12.450895 0.4902814
1.2769215 3.411961 0.84150994
-2.041304 2.4552407 -0.008859862
-0.97088003 4.015766 0.5074341
1.2000139 5.6979113 0.5204574
-1.0786062 9.826668 0.89176935
-1.1587999 8.294977 1.2499604
0.04109659 3.4244823 -0.40143925
-0.8537688 13.3877735 0.59693956
-1.0335126 5.7906 1.5720437
0.8161197 1.6407628 -0.25248885
-0.05113908 9.128708 1.2689142
-1.1233082 4.725008 1.2086341
-1.7663114 7.585767 0.63306594
1.1633763 8.254992 0.9382043
-1.2591827 6.082859 1.4337618
-1.0405443 4.7292166 -0.18952525
0.64095926 8.172066 1.3062415
0.20276305 13.194151 0.35726017
-0.43471307 5.012068 0.017274372
-1.157622 9.813221 1.262892
-1.315897 6.5458765 0.3835262
0.811996 9.7236 0.09343308
1.4866269 3.129644 -0.35455775
-1.3425889 8.29731 0.8875836
0.35283577 10.644354 0.43454778
0.54320836 1.1296096 0.21442017
-1.5596302 1.3157182 1.3712358
2.3019307 8.397654 1.0102099
-0.03945581 9.585512 -0.062140986
1.0443878 7.155531 0.54293156
-0.05056468 7.545822 1.5345817
2.0204449 -0.39679396 0.43485546
2.2566853 -1.4803975 0.81251645
1.3954594 2.9004488 -0.023039777
-2.55023 9.628521 0.700541
-1.3710243 10.047186 0.26337606
-0.8877593 7.335989 1.5548656
-0.8519801 3.8433824 1.1920309
-2.2503633 0.3995356 0.32614028
-0.0147157665 12.519268 0.74392754
-0.0136470515 9.743216 0.39779913
-1.5170541 7.8221664 -2.8360748
-1.5497069 0.40897268 0.97458196
-0.32476258 6.6865387 -0.53538513
-0.57836604 2.3655858 -0.08151826
-1.9556 0.4155591 1.1159828
0.26737255 7.521658 -0.030606221
-0.73533356 10.067579 0.8595683
-1.7485666 1.0471213 1.2300881
-2.5237908 7.548559 0.22375587
1.0193679 7.0305634 1.2775676
-0.4300012 11.786083 0.72689223
0.6647757 5.266223 1.6844871
-0.49084872 2.8608003 0.40013343
0.6063902 7.0853815 -3.0249534
-0.3811738 2.5077305 0.19442749
1.9538455 1.4364996 0.24438217
0.3263281 1.8626049 0.21056563
2.3615534 9.027233 0.8886858
-0.14868233 4.885003 -0.6807945
1.6921802 2.115014 0.97227776
-0.11556879 7.3505926 -2.7096791
-2.6730666 7.653867 -0.36468345
-1.3647745 7.5175905 0.46222472
-0.73299766 12.062241 -0.29794532
-0.96620417 10.611332 0.93945324
-1.3782148 -0.35821283 1.2169046
1.9086297 7.2034636 -0.5496551
1.5344396 0.63983834 1.1223485
-0.5066192 7.3621607 0.64369667
0.9499681 7.144761 -0.15281169
0.27068424 5.2925415 1.6540482
0.5962628 8.125513 0.10119958
-0.010046873 4.7430735 1.4288502
-2.1180706 0.7452533 0.14195517
-1.0449564 2.299191 1.3158565
-2.0215435 -0.6868917 0.9404036
-0.9945159 3.5467281 0.8986516
-0.2683078 8.090008 0.84324217
-0.36371878 8.498292 1.0823214
-1.7008882 10.563847 1.1388412
0.02525206 7.4634724 -3.3379793
0.33644772 8.96327 0.9048469
2.1100392 -3.3139653 0.7874551
0.71240914 3.8142748 1.1282158
0.4833324 6.3388777 0.040214777
-1.9928458 3.5680323 0.13717112
-2.8109741 7.3611555 -0.4478554
-1.8802786 1.3236618 0.47979152
0.9548743 8.785051 0.6627629
0.9095979 5.5867577 1.5877473
1.0989394 0.047112823 1.0775263
-1.1605895 3.1539578 0.043044925
-1.3639367 6.76696 1.1150014
-1.9649007 10.446178 0.51594603
-1.5249312 7.2216463 -3.3370466
0.037342794 9.560677 1.2763643
-0.69398355 12.848587 -0.35845587
-1.5688939 0.8891177 0.21368599
-1.0136721 6.5832996 1.1250935
0.10631998 5.6798153 1.6605909
0.9067271 7.24765 1.6272938
2.037981 7.2164974 -0.17745283
1.2281682 -0.035819516 0.5867506
-0.15543157 11.654268 -0.65179765
-0.124825895 3.6307826 -0.11472991
-0.24686149 6.150114 0.39051622
0.26804304 7.2528543 0.59892213
1.199012 5.2703614 0.7125596
-2.0285964 8.553792 0.7300186
-0.47387463 13.173914 -0.41272795
-1.476294 5.5766916 0.30409908
0.8004478 3.0025287 0.03719911
1.4300058 2.7225418 1.1018794
-0.48949826 7.6256285 0.0016949759
0.46447235 13.231562 -0.033464566
-0.19466025 8.27709 1.6155124
-1.5729196 3.3999963 1.2192059
1.2555556 9.754292 0.18476674
1.908149 -0.7800348 0.3481289
-0.8645525 6.9665766 0.049143806
-0.5615996 11.38863 0.6477879
-1.978688 9.416891 0.5079044
-2.6063185 8.979332 0.78437984
0.23128143 7.280813 -0.3967958
1.0223837 7.8448534 1.3231134
-0.33181173 7.4252424 0.3050931
-0.6614032 4.7749705 1.1051037
0.9986574 5.245635 0.042467155
-1.1024954 2.6409717 0.56491315
-0.9330908 12.685419 0.3494172
-1.1157179 4.200055 -0.44876778
1.1455352 3.0757184 0.22312388
0.3405847 1.8182952 0.6056287
0.84223497 7.611334 0.97254753
-2.2040763 7.144702 -1.19659
2.2651796 -3.9066634 0.38362408
-1.7526989 7.2443943 0.82139564
2.7107458 7.394066 0.473129
-0.82824934 1.2823749 0.88431
-2.4149203 -4.5757627 1.3209336
1.4550734 6.3154497 0.8420862
-1.6523175 -0.54345024 0.96723366
-0.42598134 12.604784 0.83494115
0.84404314 2.8567026 1.1321731
-2.7039301 7.1112843 -0.20186006
-1.4488857 8.802391 0.87930405
0.70542693 9.823612 0.4887014
-2.1909256 10.179241 0.3842219
0.09216225 9.380543 1.6252351
-0.7799103 8.411806 1.2087473
-2.510324 -3.8986535 0.757164
-1.5730515 6.448531 0.9812871
1.5008285 5.5077085 0.81878066
0.022298839 10.8832855 0.61032665
-0.93035686 3.5279117 -0.09165281
0.5075971 2.5495806 0.6115068
-1.8536375 -1.3801076 1.5378664
-0.37056056 13.602812 -0.3070049
2.017624 10.335405 0.5704148
-1.1140174 5.819582 0.44614428
1.0371108 0.757532 1.1342287
0.17134011 4.868244 0.7016547
-1.3899257 7.8115225 1.2788565
-2.239439 7.168585 -0.800712
1.3594224 0.8857783 0.07967143
-0.12647012 8.791767 0.4605018
-2.2648783 -2.7912645 1.1420856
0.25382322 2.4747672 1.0928103
-0.9592339 9.092754 1.3181498
0.025274657 3.9957175 0.055487163
-0.74056864 5.3602457 -0.51424897
-1.7659414 9.78883 1.3345177
-0.11389722 8.161205 1.2510324
-0.8375819 4.38696 -0.1702143
0.19991699 12.8391075 0.542706
2.674879 7.2365685 0.10051763
-2.2353268 0.0005901964 0.12117058
0.8520136 8.06794 1.6462955
0.6773571 2.8156576 0.32269627
0.46954948 5.540512 0.5642508
-0.596552 3.2156801 1.2982173
0.112729155 8.440477 -3.4836535
-0.65527105 5.8680744 1.3941545
0.5883994 6.514658 0.7274535
-0.25659811 7.823826 0.2806018
-1.989392 4.6520653 0.4635083
2.2325287 7.9567003 0.76619333
1.8847828 8.822258 0.76908183
1.215512 3.79352 1.285057
-0.2109159 11.934839 -0.3089844
-1.7954996 9.895287 0.95679575
-0.13863152 5.552248 0.78877985
1.0659084 1.6566534 0.09260489
-0.36799747 2.9019132 0.7877003
-1.1328595 0.5744175 0.97902226
1.4292529 7.0574026 0.6324581
-0.8964542 7.2545013 -3.6225567
-0.12042022 7.0106544 -2.893529
0.6983621 7.859273 -3.2700658
1.8409548 1.3867431 0.82384706
-0.5164435 3.548678 0.42307824
-0.6374655 9.124067 -0.16734049
0.5655581 7.0883083 1.5975015
-0.19779235 12.1333685 0.67731786
0.09392673 12.500799 0.34849906
0.75491387 5.668659 1.2670002
-2.0936666 -1.0397434 1.5326235
-0.3717841 6.5705023 0.9538851
-0.10043146 8.19626 0.11386043
-0.8096882 7.3302345 -2.8331833
-0.5769268 8.77833 1.7064767
0.18889943 5.9508705 0.10935414
-0.7665143 9.164612 0.9689846
-1.1729842 8.015859 0.19377655
-1.6454792 0.7039242 1.2488272
-1.8583283 4.6518717 0.07641578
0.21107161 8.654552 0.6273949
0.48464993 12.857849 -0.114687115
-1.0335488 6.894026 -3.7289667
-0.7851857 5.5173388 -0.08864595
-1.9528016 1.3554952 1.2826328
-1.734438 2.8881783 0.42357188
-2.7008862 8.374222 0.61030495
1.1831532 4.8603363 1.3398507
0.37069398 10.299124 0.7158115
1.7852557 10.490717 0.82605374
-2.9001846 7.5695543 0.34374142
-0.9765799 4.8400517 0.85841596
1.0084376 10.068161 0.28130293
-2.0245771 -1.0368996 0.75113523
1.2428391 6.79076 0.31643382
1.0943065 10.785061 0.7679161
0.7097001 8.211393 0.49632782
1.271869 3.4219189 1.2148628
1.5344027 3.141212 1.0282578
0.034664176 8.362368 0.92864835
-0.26700932 7.5044546 -4.2782526
-2.271811 1.9098604 0.48600966
-2.8071513 -4.5475693 -0.708568
-0.749863 9.073187 1.6629028
-2.1803222 -2.3949027 1.3198781
0.9828125 10.061771 1.4757316
-2.0933743 3.8886266 0.43596375
-0.24873564 12.950491 1.27863
0.9495561 0.40370274 0.88385785
-1.9822445 -3.9431643 0.850132
1.4079542 4.727702 -0.17748335
-2.6696987 7.475813 -0.7928374
-2.1735663 1.5926192 0.31234246
-1.5484748 3.1740456 0.7320632
0.58544827 4.5446672 1.6995249
-0.8995087 3.409101 1.3476076
-2.3081436 0.010507217 0.87237036
-0.4823001 8.411039 1.4225006
2.1715627 8.659075 0.5833422
0.9238776 5.078472 -0.41854703
-1.2961307 6.6225567 0.7491945
-0.13850406 13.76939 0.34493738
1.105212 4.2181473 0.91895497
0.026879676 5.63643 -0.6446283
-1.5859561 2.5023785 0.73956096
1.1315742 4.941848 0.9460571
1.4354095 10.224802 0.722314
-0.7738576 5.5830917 0.36386102
1.0687187 8.766254 1.4078093
-1.570358 8.591003 0.16192806
-0.9478041 8.303543 0.88806117
-0.41072357 2.2230377 0.51908696
-1.1667163 5.577482 0.030850876
0.37447107 2.942771 0.57245743
-0.60328066 6.42276 0.37491268
1.5849798 8.949623 0.5161997
0.18530506 3.58912 1.4647248
0.6010939 9.971909 0.86617374
-0.10151002 7.3222036 0.66368604
0.090314 7.93342 0.9182211
-1.9720116 -0.64714134 1.6155624
-1.2120354 0.23964953 0.42714453
0.06312205 11.452507 0.075023055
-1.0104806 3.595437 0.5569322
1.2003589 7.3897905 -2.033164
-0.1294707 7.724061 -2.6327786
0.23723477 9.954903 1.1073227
-1.4978995 5.321805 -0.1972788
1.4011173 9.822287 0.56081116
0.47494215 5.9763894 1.0309484
0.67695683 5.29148 1.3171299
-1.0664577 10.232933 1.1262257
1.222606 -0.8338423 0.2634927
-2.1152263 -4.580229 0.9592954
-0.37385672 13.016289 0.9237451
-1.0760667 6.790621 -0.2610355
0.07991633 5.1836805 -0.6693964
0.58046806 1.1226289 0.65430343
0.16860601 8.429405 -0.18517244
-1.5545061 2.16155 -0.28942555
1.2854145 4.905814 0.55234396
0.20718852 6.5631332 0.5378392
0.17909965 9.068029 0.5403279
0.49397492 5.9725113 -0.14884418
1.9666564 1.8895595 0.37937665
-1.5476084 7.097561 -2.9624486
1.7699502 1.0911998 1.1102152
1.0404367 7.686763 -2.1859474
0.13579953 4.199641 1.1062415
0.44108698 9.196939 0.21583387
0.8733041 -0.75127506 0.5874877
0.52493346 13.331478 0.34586316
2.0604954 -4.015892 1.0205505
-0.7069925 2.4485388 1.146277
0.54289186 7.020033 1.19174
2.1088805 7.227269 -0.91957164
-0.46111852 2.460732 0.8864195
-1.0418875 2.7890453 0.99271643
0.92361474 4.8228617 -0.0757156
-0.8690448 8.189125 1.5779352
1.0493171 9.599828 0.45342195
-0.14717889 7.9109497 1.5975547
0.26862115 6.8726377 -2.8113604
0.41099307 12.749886 0.91307443
0.0014304821 8.589649 0.14896616
1.0618272 3.7717562 0.5326868
1.189426 5.7073565 0.011638956
-1.8603325 0.5290562 0.6636758
-1.0638125 7.2851553 0.59540915
0.47484356 4.414693 -0.5378581
-0.49166298 10.013079 1.1723632
-1.8694859 2.4783788 0.5131998
0.894187 2.308085 1.2957249
1.1237335 0.19378436 0.022902004
2.0283637 7.5596437 -0.75824773
-2.305913 0.04258208 0.50870943
-2.2091784 2.6380296 0.6191205
1.1882727 1.4868157 0.8444947
-1.1562449 4.075918 1.571699
0.609378 3.613823 0.09351471
-0.5319675 3.879716 -0.5607382
-0.061903104 13.665995 -0.07217024
-0.7949717 3.0638394 -0.024084985
1.6597388 -0.8259977 1.4508538
-2.888125 7.450575 -0.046871863
-2.0778532 -1.7580016 1.4200587
-1.6067305 6.1740665 -0.06238412
-0.085018076 3.845635 -0.50479543
1.4548202 8.5462055 0.2749443
-1.3034897 4.7293663 0.5910332
2.0070267 -1.208657 0.6282146
1.0977912 6.636792 1.3144703
-1.6698775 4.0421734 0.4601072
-1.5136478 8.948936 1.2727287
1.6727195 9.728785 0.27599669
-0.5391148 8.09618 1.1141264
0.3487714 9.226877 1.302068
-0.74354494 8.361462 -3.7399879
0.5770415 3.4785557 1.4759929
-1.1432664 9.757929 0.06899497
2.2550826 -1.9326012 0.7829434
0.39188933 2.5336375 0.25242913
-0.47609305 7.4959135 -2.5600095
-0.07831775 4.794653 0.014428724
-1.111834 10.170683 1.5274351
0.058653012 7.612651 0.30896455
0.5576074 12.602207 0.46227324
0.57852376 7.231821 0.043520883
1.7111294 3.9938183 0.79074097
-0.75551 8.092768 -3.4488688
1.2271461 2.277431 0.30507976
-0.8532415 13.16831 0.9476913
-1.4219506 10.08569 1.0555506
-0.458252 7.157844 -2.7406316
-1.4364538 2.3730755 1.3323876
-1.0974877 3.1441827 0.66505396
-0.23827517 11.4262905 0.8128705
1.213541 6.2332277 1.1398866
-0.32855678 13.308945 -0.046821985
1.0657082 9.414978 0.04504688
0.8710357 1.6343751 1.1002414
0.9226335 5.0648384 0.38356203
-1.3955619 2.0096745 1.3546681
-0.6329702 3.49293 1.0092416
0.9294592 4.5990114 1.0689948
0.7137991 1.8169646 0.7576034
-1.9201384 3.2039795 0.7420553
0.8293772 5.383025 0.62782264
0.98638713 10.708267 1.1586297
-2.3407059 7.167532 -0.37652463
-2.286458 2.2462382 0.72558236
-0.89228785 4.454461 0.9780321
-1.0407076 7.7619267 0.52792394
1.1153077 6.7776237 -0.052146874
-1.5966499 4.5891037 -0.2540571
0.6948153 9.351334 -0.062818035
1.3930762 7.5806074 1.1828895
1.5748987 0.7431328 0.39771807
-0.47476286 5.418888 1.8393819
-1.9723403 -0.55260193 0.5787785
0.061030135 4.6052637 0.36845458
0.86919343 8.485144 0.24003044
0.35947257 8.800425 0.2618698
0.19260028 7.0207376 1.3613503
-0.18940318 5.9884596 0.07212734
-0.32874292 9.522989 0.2338762
1.5228217 7.46453 0.8150308
0.4811616 2.7996078 0.9664947
0.3153063 5.1656237 -0.10020912
-0.3506407 8.872154 0.12530747
-1.4644129 2.805211 0.004988134
1.0547194 6.49078 0.8778846
-0.9938476 5.6163797 0.7426802
-1.2550128 5.9972773 -0.18790618
0.20879394 7.278511 1.7228017
0.46491158 9.146185 1.6643155
1.3373752 8.00819 1.2545612
0.75572956 9.614376 0.83704424
-0.18302326 12.376112 -0.40825084
1.4841664 0.28555816 -0.19616139
-0.98461974 8.483915 -0.1899103
0.39419478 9.633818 0.32421792
-0.64006305 8.012173 -3.0017133
-1.7493954 9.777752 0.57704496
-0.37701595 9.895172 0.7973083
-0.6610786 7.868617 -0.2631855
1.0282503 9.032904 -0.037810132
-0.20396519 12.693571 0.17794067
-0.23314038 4.8947973 1.0834937
-0.10820757 7.2671824 1.2881241
-0.42631942 4.603979 -0.65682685
-1.9225066 -4.6009445 1.4066827
-1.5627332 9.739897 0.22143683
0.033772983 13.152727 1.1753736
-0.73907506 2.6799603 0.12086159
-1.2533858 4.354287 -0.09154841
-1.1478693 10.708851 0.5728289
-0.6618104 6.967208 -3.4518552
-1.7467749 3.765029 -0.21219176
-1.7681139 9.09145 0.70437765
1.4078126 9.850782 0.97847533
-0.74435914 7.068884 0.408723
-1.435008 2.5712771 0.38466513
0.48538154 3.2555027 0.22162437
0.13343212 2.79732 0.87725663
0.7276708 6.193763 0.7986462
-0.94068587 4.144705 0.12840688
-0.95267034 8.95949 0.6042942
-0.8278185 13.178408 -0.091953665
-1.4562011 1.0083206 0.57584774
-1.1221535 5.13715 -0.05755698
1.5926039 4.586853 0.14463222
-1.7215502 0.27974647 -0.111507505
-0.116742596 7.700452 -2.274212
1.3394051 6.3124304 0.43582684
-0.40640223 4.880554 1.4577205
0.42239785 1.4708638 0.7720746
0.023232013 3.4297347 1.1327221
-1.00031 7.6670084 -0.22801113
0.46239313 10.273884 1.1410923
-0.060723033 6.780411 -3.815987
0.23219511 5.480117 0.22670114
0.7258179 10.932831 0.872823
1.1378775 2.4549456 -0.44744217
1.9198937 -0.06098745 0.2837906
-1.0105052 0.9473983 0.70540786
-1.6050811 2.9394321 -0.3311786
1.6180475 -0.82208383 0.069706514
-2.6340966 8.491671 0.24225628
-0.8064958 12.447233 -0.12314354
-0.9471979 7.98831 1.2005012
0.52372277 7.907298 1.6380646
-1.1061668 2.8225222 -0.2777251
-0.57807624 1.8333457 0.5184095
-2.6744156 7.8124075 0.051408052
-2.1988912 0.37075508 0.7377877
0.30840886 6.9092293 -3.6373076
0.19079989 12.116161 0.6680491
0.8456825 9.340319 1.6150494
1.8833206 7.4901657 -1.1450222
-0.45552343 7.6714334 0.91364837
0.525208 5.663147 1.6425638
-0.82363355 13.490162 0.21383189
0.04740408 7.210593 0.2597841
-0.99450827 3.0225992 1.3845799
0.1376988 2.608841 -0.11517413
1.7258689 1.3888388 -0.06628007
-0.42822528 5.3917418 -0.19265437
-1.3769052 7.877582 -0.16109565
-1.7071939 -1.6644833 1.3060112
-0.98236835 7.2796793 -4.0255327
2.1840453 9.26442 0.23585063
-0.26798248 5.9198017 -0.6158025
-0.063437894 7.637887 -2.997994
0.65722644 3.9221954 0.426884
1.2199309 5.330098 0.33842552
2.1387715 9.760626 0.96388686
3.007616 -4.791815 1.5583804
1.9787121 -1.8177115 1.029083
0.19819999 6.889759 1.7295113
0.4918279 8.750788 1.6466479
1.428011 2.7316065 -0.38376677
2.2874608 -2.6869636 1.0909152
-1.7886579 1.7202842 0.3096642
-1.3321946 7.7401 -3.1912198
-1.2592409 7.199772 1.4654864
-1.4989626 0.34605014 1.4207735
-0.06818256 12.2643795 1.0624521
-0.47067714 7.1768966 -3.7768235
2.0928736 9.657589 0.29127812
-1.1288457 7.1950293 1.0449028
-0.015696507 12.072975 0.33362705
-1.4492879 0.28780955 0.15641958
-0.3057819 7.502219 -3.541572
2.4761527 7.2211437 -0.2772502
1.1695709 1.7630062 -0.3376546
-2.2495089 8.253061 0.493559
-1.3712189 8.7958355 0.46206433
0.15690652 2.4720483 0.67491424
0.61262643 6.0369387 1.36829
-1.011493 3.7170467 1.5487117
0.27353668 8.335432 1.3377106
-1.0530772 1.8529882 0.7309276
1.9372752 0.69894886 0.37627155
0.916438 6.8523064 1.6200602
2.5142941 8.642876 0.8274499
-1.3442268 9.227348 1.4042351
0.7493676 10.666355 0.56729686
-1.3792138 7.073374 0.78113276
-0.7637975 8.712633 0.89237523
-1.7300789 3.2938056 0.39949256
-1.2264616 6.9576235 0.4387241
2.613206 -4.0084286 0.26076263
0.3094648 6.846099 -0.43786526
2.2053256 -1.0631685 0.8649352
-2.6488595 -4.255172 0.68698967
-0.29215613 8.604086 0.742771
-0.83587134 3.1484103 0.9800601
-2.070107 -3.5054507 1.2292547
-1.8167088 8.819834 1.0175695
-0.84192175 2.6749177 1.3687038
2.06068 -2.9947534 1.1533017
0.18176624 3.6282096 0.106661156
0.7689419 2.5111966 -0.44066215
1.5628674 1.4316332 1.1365559
0.44675243 9.388502 0.6477721
-0.33605862 4.5209494 0.3611887
-1.7085779 4.9114723 1.1039338
-1.3309858 1.1066694 1.2561657
2.673408 -4.593758 0.06003987
-0.28849405 3.2177563 0.51413333
0.22168228 3.8452282 -0.26985723
0.5574783 7.925926 -3.6181726
-1.8562934 -0.27656478 1.594531
0.29108846 8.331009 0.29202288
-1.160089 4.986703 0.31013817
0.41318533 12.433559 0.7024697
-2.6702852 8.785561 0.48977533
0.8128269 1.417038 0.693287
1.3218122 0.75381035 0.83950675
0.7641698 10.46335 1.4026647
2.0171847 -0.092574865 0.71392226
-0.46010968 7.485003 -2.2070603
-0.5727824 4.132822 0.46081698
1.9300647 2.2892127 0.3306474
-1.7846196 10.1917305 1.2715597
0.22167243 6.1663446 0.4383636
0.7164787 5.4815273 -0.4434842
0.842958 4.9078236 0.71944153
-0.8469759 12.789221 0.94900095
0.7706367 6.7482634 0.99117184
-0.31053826 9.097212 1.6158876
-0.43175393 6.7829533 -2.5811145
-1.0017297 4.4094973 0.614859
1.4585197 -1.4135826 1.1388879
-0.007959908 6.579895 0.957075
1.2735002 3.7475848 -0.07198976
-1.379327 9.625994 0.6968724
-1.266928 6.9838686 -3.4730268
-0.58456373 12.55171 0.14532128
-1.8415294 0.6768607 -0.16883525
-0.67965865 8.813387 1.2868514
0.10853651 3.5852008 0.7836174
0.41320843 8.106825 1.0351624
-0.4067127 8.210787 -3.2280064
-0.19312325 7.329465 -0.44272035
0.34545946 3.6263385 0.4251535
-0.8304671 7.3871813 -0.0022741482
1.7922769 9.895433 1.1791
0.43795192 7.472746 0.32053864
-0.4268958 12.171799 -0.13703549
-1.42008 2.8442612 0.8130629
-0.79131377 6.9062424 -2.580593
0.6280694 7.1353846 -3.49036
0.76460004 4.6969337 -0.57623637
1.8532753 -0.65283763 1.0513916
-1.13007 3.744516 0.18881622
-1.1244607 5.392622 -0.3337505
-1.2319324 7.353622 -3.037766
-0.3065843 3.8993 0.674562
-0.42900193 13.709528 0.10434139
0.5919213 9.006159 0.5762124
-1.9591765 -0.17034677 0.4341758
0.8978664 5.9618444 1.0548887
-0.6566459 6.5827284 -3.25277
0.79848063 -0.29986984 0.50666106
1.4330921 8.975175 0.16735551
-1.3574429 3.8060722 0.45593452
-0.028692666 12.834179 0.92028844
0.028288234 7.022726 -3.296688
-0.9438472 13.111801 0.2796809
0.37968105 12.179176 0.29483503
-1.2758183 -0.15937242 0.90634406
0.6705849 5.2109756 -0.16743663
-2.3117142 -3.801703 1.108918
0.8317379 3.9824886 0.772658
1.0516436 5.2182293 1.4374001
1.3896132 9.99118 1.3728747
-1.3744352 2.340085 0.043132707
-2.0141177 1.4838209 0.01422618
1.9885557 -1.5219314 1.3897486
0.6923592 0.40718156 0.5316261
0.20066106 11.930744 -0.4464203
2.3738904 -3.6021004 0.64579713
1.4341612 -0.14062348 -0.10505453
-0.31428534 8.064156 -0.2973917
1.6647658 -0.014410745 0.6007031
-1.1725209 2.0770226 -0.2573019
0.1360133 6.2214813 1.2758343
-1.5043485 5.7048845 -0.16042271
-0.90721667 9.445265 -0.05607613
-0.7586479 1.6590889 0.19197929
-0.34670496 8.510265 -3.5897722
0.7741747 1.2474651 -0.1415751
1.5271978 5.0379124 0.11670345
-1.1748888 1.9615002 0.16749883
0.15619802 4.5682383 1.7827706
1.3911555 7.577711 -1.8358173
1.6364434 7.5267906 -1.4662595
1.7442825 7.2316313 -0.9020188
0.21599379 4.119747 -0.6342696
1.0791817 5.474455 -0.2697367
-0.73659134 10.794567 0.47784096
1.0853031 3.1462903 -0.21294054
-0.7310573 6.547654 -0.40686607
-0.28162462 7.510707 -3.9308653
-0.5749253 2.0782123 0.18620905
-1.3110342 6.1932945 0.56909525
1.704217 0.6773499 -0.048853427
1.1237278 1.9493704 1.2869272
-0.59238553 8.405483 1.7710075
-1.0865368 5.189584 1.6042991
-1.2673564 2.4788609 0.9608476
-1.5741267 7.326724 0.08621021
-1.711545 4.9945116 -0.071253106
0.5865195 2.1891413 0.1564638
-1.6755713 8.475105 0.9401691
1.1858964 3.0420067 1.1275136
2.3554769 -4.5769386 0.49654633
-0.4947316 9.529505 -0.09829436
0.3874886 9.591804 1.0843382
1.8877473 0.3400247 1.2433319
2.1584954 8.730408 1.0668154
-1.6799593 6.5355253 0.21723446
-0.21038264 11.59911 0.40138698
-0.34896946 6.5970182 -3.5614371
-2.7825599 8.027325 0.39840066
-0.8032315 1.711894 0.9362937
-0.10667468 6.5827475 -0.21868132
-0.888103 4.797535 0.49628454
-0.08182585 13.397816 -0.40884286
-1.6434102 -0.22234926 0.7053535
0.09746857 6.667984 -3.0898523
-0.8404932 9.503174 1.3185215
-0.886981 2.0437574 0.44671303
-1.2290456 0.9672419 -0.022014525
-0.61107695 7.34999 -3.3394847
-1.384824 0.8432107 0.91875935
2.4877143 8.090536 0.34407914
1.5501044 -0.6875918 0.41238183
0.79282165 6.0074263 1.662147
-0.25804132 11.505665 -0.20986632
-0.57563066 5.9159365 -0.21833202
-1.8609374 7.9426756 0.54451764
-0.82219684 4.8080893 0.084174275
-1.5328376 6.0672646 1.1586347
1.3959212 7.144026 1.0919034
-2.2720456 1.4163883 1.0322278
-0.4123848 6.8086653 -3.9448118
-0.5482602 13.242218 0.28261358
0.5358788 7.2471085 -2.6626124
1.0665274 -0.5079961 0.3290394
1.2130406 5.53969 1.25387
0.71609277 3.2979884 -0.19758128
-1.4888079 8.370949 0.53549933
-2.4901366 8.15563 0.11896382
0.102922425 3.270019 0.4141189
-1.5034733 9.246859 0.97136796
1.2701719 9.089186 0.68951297
0.5180923 6.5411987 -0.3866719
1.1961744 10.385485 1.3261619
-1.2876794 -0.12909088 0.47347832
-2.3147178 -4.584646 0.47517878
-1.0086775 6.5142803 1.5349972
1.3268192 2.4343286 -0.07060689
-0.60729384 4.737071 -0.30498618
1.3832061 0.6701623 -0.27187097
0.31479883 11.016327 0.97214365
1.4775589 1.5576918 -0.28717798
1.4320035 -1.0850232 0.9051833
2.2942948 -4.274168 0.29137588
1.7364585 0.010298252 -0.020081613
0.6125752 4.532955 0.07387145
0.056189783 7.778984 -4.135694
-0.5000769 8.065662 0.086177394
0.19311821 8.121435 1.7006893
-0.48097348 3.85745 1.0606892
-0.98179364 2.3345776 0.20477098
1.701242 0.9072001 0.75941086
0.54738796 7.4931173 1.636111
1.6626036 4.8236227 0.41470546
1.3006771 2.2713494 1.1257651
-0.12360729 7.3910036 -0.07559158
-0.87633204 7.5718155 -3.151444
-2.6821074 -4.17758 0.3036726
1.6861312 2.8712988 0.7913065
-2.0334868 -4.2534027 1.5807865
0.11488967 7.392647 -4.12352
-1.2937653 -0.67074573 0.9345217
-0.8825021 3.3620553 0.28007823
-1.6366014 -0.4314444 0.34718645
0.6621753 6.7012014 1.3333092
-1.9168246 5.0575247 0.30205894
-0.47457105 7.9055786 -2.6487384
0.8103018 2.4606364 0.27380663
-1.2743909 4.3456116 1.0837294
-0.27033252 5.041603 -0.339195
-0.71716034 12.071502 0.12055501
1.510047 3.2656665 0.333161
-1.3691146 7.4781694 -0.17675966
-0.8351387 1.2536101 0.42099172
-1.1329999 5.394185 0.3772568
-0.995847 6.864872 0.8084082
2.6118884 7.62665 0.2446597
-0.30951124 5.372676 -0.6192781
0.03254066 9.4334545 0.61006784
-0.46865362 7.085705 -2.3428993
-0.3934381 12.782967 -0.57994545
-1.4250836 1.5891573 0.14246544
-1.114615 2.7010002 0.11374317
-0.58971965 5.693144 -0.54839766
-1.7616496 7.5364647 -2.5925307
2.0120044 -2.4754167 1.260567
-1.6371157 4.4867268 1.2146218
-2.0689244 1.9650064 0.12412803
-0.6554872 12.480295 -0.49285805
-0.637216 5.798523 1.782352
-0.7590908 9.566069 0.31606865
-0.61852455 5.7121277 0.72490716
-0.031038728 6.766712 0.22223642
-1.1451085 9.429163 1.0770042
-1.7277937 2.5514712 -0.26755583
1.9453106 -2.1381783 0.77433884
1.770124 -2.1779385 1.0957315
-1.081259 7.856758 -2.5410867
0.8015672 3.9723296 -0.22523895
-0.96055853 6.235566 0.347974
0.59704924 7.049226 -0.32254064
-0.72033274 9.834717 0.02903879
-0.57802844 9.833458 1.5689569
0.46104026 3.9662318 0.076528
-0.90787923 6.1851606 -0.261492
0.92289174 5.2893066 1.0205848
0.76580024 10.231552 0.62803495
0.8510448 6.941126 0.204306
0.7607608 0.061501272 0.38769644
0.24973539 8.109215 -3.8273578
0.97641134 3.5852222 -0.23449278
-1.003126 8.091248 -0.18927315
0.47483844 2.3433986 -0.25503904
-0.65158343 11.198029 0.36504364
-1.5781691 5.349578 1.1620865
-0.62627435 8.314926 -0.22224003
0.38488668 9.610527 -0.03782416
0.17862171 12.370302 1.7462747
-2.3252254 -0.34254944 0.2704252
-0.13007677 4.379612 0.01685676
0.21108513 8.3895855 -3.0648222
1.4327838 -0.12622535 0.8948548
1.7923532 0.3610676 0.17352927
-0.09483568 3.8129673 1.1097236
2.0685472 0.98501724 0.8878404
2.0882053 1.1026857 0.5143687
1.4572968 10.115551 0.30870825
-0.33266658 5.7110214 0.41747302
-0.5185472 8.72897 -0.22896153
-0.68840754 3.7619696 0.7066821
-0.5496088 3.1444554 -0.38209808
-1.3859918 6.4357557 1.3589778
2.3577542 7.7645245 0.043395635
-0.84133565 12.528228 0.67946947
-0.6237011 13.477673 0.90169024
-0.26269913 4.2102976 -0.5986035
0.39664936 2.737064 -0.3952306
1.0753856 2.4917428 0.9172931
1.2764516 5.093199 -0.20929956
3.0436926 -4.589589 -0.18910158
-0.62358296 3.6593106 1.4590659
-1.2315872 3.6056046 1.1564834
1.114885 4.156947 1.348541
-0.7365023 9.723589 0.64304936
0.3476538 6.9498653 0.3000788
0.60049117 8.594936 0.55241036
-1.3824017 3.7595668 1.466418
-0.8294872 2.0730953 1.1137397
0.40001643 7.292411 0.95199335
1.0255231 9.395195 1.1369919
0.6231431 5.600992 0.933689
-0.9692491 2.4174776 -0.20550719
-0.6765592 9.449242 1.6596065
1.4530597 4.7797422 1.0273101
0.12739486 6.501177 -0.54649305
1.5708635 9.203339 1.2396123
0.9470166 3.5541115 1.3629899
-0.81583 7.2562895 -2.3852305
-2.2504687 -0.6945816 0.1827423
-2.2572532 -1.3995566 1.3483615
-0.32746655 6.4975805 1.7532363
0.822762 6.6978254 -0.23037319
1.7697389 3.07859 0.011578141
-1.9442773 3.862774 0.80295205
1.0141585 8.291212 1.334677
-1.3988221 10.40653 1.3527119
-2.0470648 -3.100021 1.2617528
2.2735517 -1.7145817 1.1724765
-2.9793448 -4.5829525 -0.33694422
0.7442425 4.208296 1.5747159
-1.905204 2.8240857 0.83250225
1.9506226 2.2084494 0.72222877
-0.06567974 9.676521 0.9141724
0.46141702 6.399649 1.1472471
0.83242786 8.511147 1.6376867
-1.9650481 4.2941027 0.2658698
-1.0970366 8.693232 1.1857932
0.54377174 3.9773612 -0.5884291
1.4719825 4.346838 -0.14399335
-0.9262285 6.0469074 0.76876795
0.60352826 9.013372 -0.13667466
-0.5196732 3.167324 0.1653682
1.716624 0.52613646 0.77061427
1.315563 1.8637469 0.42387617
-0.081052415 8.108286 -4.0569496
-0.6133152 4.53893 0.6546726
0.35053378 10.041534 0.4566285
1.6310928 4.161706 0.108816765
0.9738004 7.5298157 -0.1291606
1.1466786 1.34816 -0.3327492
0.2170048 11.76264 0.35028148
-0.053120565 8.401777 -2.785109
-3.167809 -4.791814 1.4909096
-1.7251668 10.281044 0.84356225
0.55350506 10.014828 0.12475355
2.2017088 9.368574 0.97701013
2.0378337 0.007329341 1.1084144
1.2404237 1.347765 -0.008662215
2.5246844 8.58679 0.450544
-1.749154 8.137461 0.8112179
-0.17944959 11.211199 0.41073257
-0.13983929 9.836613 1.510242
-1.2571821 8.047983 1.5535765
-0.16697326 5.9348526 1.3857028
-2.3604598 9.551329 0.3554185
1.0754133 2.8323927 0.4904039
1.3013401 4.0656586 0.24173096
1.013335 1.2702506 1.1025448
0.27991018 7.769724 -3.1413383
0.20795317 4.837656 1.0886195
-0.25370985 3.1999078 -0.1945597
0.39527625 8.198149 -3.4135213
-0.21624887 3.41157 0.1788331
-0.14206934 13.423422 0.32536924
-1.2500539 4.580024 -0.47023153
1.9964786 -1.0673771 1.4188287
-0.82313025 9.907957 1.2426722
-0.062363107 8.10116 -2.4521322
-1.9784031 -4.232229 1.1365523
-0.67987263 6.5166693 1.7793245
-1.8675051 -0.8369359 1.2419415
1.3728216 3.5493555 -0.39524823
-1.6995897 -1.4551383 0.95873535
2.1960597 -2.8944483 0.80536556
-2.3511057 9.207907 1.1696177
0.8486176 1.9408548 0.038723268
0.06775561 7.071989 0.97526276
1.5881112 5.071597 0.7787061
-2.5314584 9.2219715 0.43636245
-0.50252974 4.1923437 0.08345863
2.5996575 -4.1973066 0.9334049
0.99259603 4.218919 0.46852762
0.019613028 7.518008 1.008229
-1.7327797 3.0997066 1.1100254
1.8848245 2.599142 0.5905585
1.4430907 4.034028 1.0977547
0.7854693 4.2256393 1.1339933
-0.01818877 4.535158 1.0391865
-0.4176699 7.9275284 -2.279158
0.9930129 7.6771812 -2.5543642
0.74852514 4.43814 0.74293506
-2.32972 -0.3335073 1.0935171
-2.2522159 0.73325837 0.52122533
-0.10908711 5.3690414 0.4146734
-0.48906916 6.870144 1.8229859
2.2286668 7.782776 0.41026238
2.5841427 -4.5842285 -0.6740655
-0.733817 5.111232 -0.2176134
-0.35168302 9.536753 0.63955426
-1.8718004 -0.7553623 0.27222592
-0.24536473 4.5975685 1.7941983
-2.751274 8.606588 0.90837824
1.3632832 0.49470282 0.15668243
-2.6255317 -4.5926914 0.14982659
-2.5072722 -4.197548 1.082031
-0.015209022 7.208947 -3.6991634
-1.6225293 3.6280298 0.1857181
-0.9347147 7.78741 1.5442325
-0.6990099 12.446108 1.0467966
-1.4747918 3.9837766 0.04177867
1.5050964 1.2432175 0.22541294
0.20572764 7.13068 -2.533401
-2.6171684 9.304962 0.8937255
-0.023371957 3.18429 0.791357
-2.5002248 7.181367 0.072689846
5.6611192E-05 13.18935 0.7076596
-0.48194057 10.530241 0.24276799
1.8299115 1.79339 0.024801869
1.1089704 6.0588894 -0.07075283
-1.3760688 4.7882414 0.010113729
-1.5203516 7.4461737 1.1820321
-1.576016 9.387983 0.50229764
0.6024016 5.3422737 0.21951485
-1.0264623 8.327299 -3.419579
0.6837044 8.587118 1.278621
0.65898573 3.3564148 -0.57810986
-0.8648919 8.551075 0.49663824
0.33868068 13.085478 0.9785377
1.3464558 7.423751 0.42014885
-0.30123323 5.3272305 1.0857048
0.2869094 7.4347906 1.3351018
-0.17048466 4.9612427 0.3739313
-1.3986754 5.0988264 1.3873794
-1.0383184 5.826748 1.1327972
0.83948636 0.753621 0.72442985
1.98282 8.377653 0.86478436
0.22177407 4.5450544 -0.2424539
0.87994325 3.2501798 1.2281961
1.5735698 2.0473866 0.18768
-1.0845761 5.12533 1.154537
0.20839405 12.274353 -0.55259633
0.04689069 8.00939 0.4978425
1.8582592 3.0385141 0.45299238
-1.272218 2.095653 0.9621371
0.3368171 3.162356 -0.51680183
-0.030217355 5.550496 1.2780194
-0.19366926 11.812767 0.07723375
2.3716702 7.467866 -0.6211566
1.1102538 5.8911963 1.3909829
0.25104046 2.825768 1.2993326
-0.5530566 8.879303 0.5299326
-0.34590513 10.215523 1.453547
-1.314353 9.152214 0.6588017
-0.93618155 7.709111 -3.5627713
-0.004337481 8.587641 1.3103523
-1.2974048 10.765484 1.1974473
-1.1600511 5.16152 0.69956326
1.1036644 9.010132 1.0431712
-0.72595274 10.431662 0.6754209
-0.53199685 4.901554 0.3862269
1.1361845 2.6596751 0.19147965
-1.6764741 4.1749096 0.9212425
-0.19415432 6.4689903 1.3513496
-0.8722042 8.38748 -3.0588012
-1.6025124 -0.73956287 0.59898496
1.5350893 5.6405783 0.35494977
0.27554175 7.8552656 -2.4335337
1.4840586 0.22949892 1.320209
1.0739086 2.6216536 1.2548087
0.18556291 8.538427 1.6954942
2.1831632 8.130526 0.18306883
-1.7734675 4.231246 -0.11063938
-1.4612763 4.7579184 1.3889511
-1.6857076 5.6849356 0.9375106
0.41482592 7.5813427 -3.444263
1.8063006 3.6443458 0.6491145
0.7924452 2.7943163 0.73130226
-0.82703507 8.335617 0.12916616
-0.16379163 8.541014 -3.2050877
0.6389266 3.1532369 0.890702
0.40244603 3.324018 0.68022645
-2.0961413 2.746911 0.25778538
-1.7262654 8.7150955 0.57561195
-0.07668966 6.2612696 0.7117264
1.4731777 1.2608664 0.7447138
2.3399944 9.467487 0.62804806
-2.0411644 8.7425785 0.31914014
2.1315074 -0.73785675 0.6847701
-0.4914109 12.954399 -0.011111985
0.34905148 12.582649 -0.34744883
-0.44578648 4.507739 0.995478
1.2022016 9.19483 1.4339678
-0.92076933 6.202116 1.2595897
0.21275729 7.0727644 -0.079279184
-2.1701195 7.442486 -1.7676716
-0.40711558 12.126042 0.9899943
-0.19773015 7.1770144 1.6459343
1.1918697 7.2048388 0.16664273
-0.37107778 7.280773 1.0256028
2.0033436 -2.0057611 1.3369067
-0.4067083 9.65246 1.2205987
1.3477304 4.0596113 0.6326016
-0.9868349 4.026761 0.8787279
1.1000078 9.179497 0.36429805
-0.15058166 12.029488 -0.67607677
1.7138529 3.8959727 0.36605072
-2.2998724 8.4916115 0.1754097
-0.75960886 4.574939 1.3939459
-0.3600124 2.8105597 -0.085701406
-1.835604 5.4337234 0.47651303
-0.68903315 12.37044 1.7285515
0.4835649 4.6907873 0.4780957
0.059294716 8.995977 0.13165453
0.42209285 12.535564 0.080953404
-0.6298224 6.1281624 -0.5259043
-0.92903984 6.4438467 0.71443236
1.3950586 10.580292 1.0380597
0.23140568 7.962515 0.064652056
-0.13125455 5.3643675 1.6933036
0.34588832 8.241371 0.6786696
0.4494521 3.860528 1.5860429
-0.8756527 10.457083 0.29953325
-2.3874512 7.492652 -0.6183766
-0.69918406 6.6788416 -3.6712685
2.1242385 -4.2598877 1.4154725
-1.7448065 5.8032684 0.113029554
0.06840822 12.709501 1.2230847
-1.5605352 1.9618821 0.06753464
1.2175627 4.857482 0.18273386
-2.6575923 7.3029814 0.44310805
2.4354806 9.009316 0.519652
-1.1410222 3.5108976 -0.4124726
0.04861301 6.9005556 0.61913097
-1.2977064 0.67579484 1.3089421
1.1966584 0.5815778 0.5819863
-0.16330478 11.133881 -0.009545069
-0.66999984 3.2397037 0.64715135
0.8719976 6.491802 0.14788775
0.052352957 5.9362526 0.9513358
0.596937 1.3440236 1.0747449
-0.73386633 7.1383495 0.80838823
0.30898386 10.508724 1.3885753
1.4118452 5.9857893 0.18584397
-1.5603318 8.135298 0.17909378
-0.60819805 9.263634 0.6238514
-2.1843982 -0.18645224 1.4253967
2.5541196 7.5427456 -0.19561194
0.4513911 4.2045107 -0.21513197
1.4954767 1.713318 0.7683263
1.8020585 -1.0315673 1.0682104
-0.44295472 8.506058 -2.9365625
2.2293396 -2.4131021 0.792887
0.18278947 13.613985 0.55157906
1.7598948 9.993605 0.69820976
-0.12709837 6.6621647 -2.788756
-0.0727915 5.199357 0.025545225
-1.9587848 -0.40936708 0.07863277
-0.18539113 4.621871 -0.33798438
1.1439335 10.4229965 0.44265735
0.10064615 7.5656166 -3.7371602
-1.3426571 7.5016947 0.8354683
-0.5682378 10.184534 0.1051413
-0.23769102 9.180502 0.38169533
-0.37998503 8.116163 0.48934484
-0.25641304 6.534625 -3.1683652
2.3268857 -3.2533064 0.9980186
-0.925439 6.6885633 0.38848776
-0.9549749 3.8475542 -0.4995035
1.2398279 10.158628 1.0516517
1.4168437 8.840145 1.27848
0.10430518 13.479052 0.9375571
-1.1382654 7.719329 -2.8696375
0.5162148 8.533743 0.0801175
1.1784604 8.784151 0.38592994
0.8971721 5.614626 0.29331
0.87496984 6.789093 0.5766102
1.0953574 0.275378 0.43199724
-0.308708 9.343418 1.0063396
-1.8812659 2.1760697 -0.14576486
-2.1465015 9.71163 0.7639538
-2.0419006 -1.5438507 0.78922164
2.0715337 9.133034 0.6071526
-0.26276678 6.1963463 1.0758071
-0.598238 6.1473274 0.08947704
1.7066181 0.16388988 0.95430744
-0.68746555 1.5243838 0.62171674
0.129451 7.6658363 -0.37254137
-1.7019401 7.180153 -2.666677
0.13247994 4.938491 -0.3452558
-2.104237 3.4851441 0.50951767
1.4168391 -0.15490475 1.2941549
0.7628976 8.379004 0.8771651
-1.7884343 5.4030743 0.056370392
-0.25626266 8.056259 -2.8975315
-0.59483397 6.6444216 1.4020922
1.4774647 1.8920884 1.1018642
-2.0141072 2.45994 0.90522027
-2.1641922 1.0804994 1.1884422
-2.0601268 2.0769396 0.9860872
-1.2571127 7.58401 1.5362241
1.1239301 1.8751869 0.87152135
-1.6941955 -0.9769542 1.5723095
1.0167048 9.806353 1.1263783
-1.0887365 1.6179962 0.39150882
-2.5591679 -4.5815687 0.8899543
-0.6333711 6.0084925 1.0243592
-0.2715664 2.5707908 0.5683603
-0.34213564 4.5198574 1.358388
-0.7298337 8.771873 0.14961815
2.0239158 -4.6138277 1.2615561
-1.4650352 1.2467868 0.91872287
1.1045737 -0.15565422 0.21115175
-0.5818485 7.7594852 -3.3681154
1.644927 -1.2571955 1.4237258
2.2621956 -2.190474 1.1124859
-1.7227833 3.6465545 0.5835673
1.4408226 10.636474 0.6594367
-0.9666288 7.949932 -3.169157
-0.53135836 9.218945 1.3072224
-2.136641 7.1617613 -1.5663965
0.10080676 5.2102175 1.0225759
-0.54809034 4.932891 0.77185106
1.0710444 8.011524 0.59534246
-2.0337987 9.782373 0.2950346
-2.638373 -4.339651 -0.15401918
-0.92339295 6.7568684 -2.9270778
2.0786934 -3.7744784 0.73199797
-0.9064859 3.1872253 -0.34808975
-1.6858459 1.557364 1.117832
-0.17834365 13.053183 0.27925143
-1.6372468 -1.025281 0.952453
-0.11282048 6.1662884 1.6532178
-2.2400975 8.797684 1.0259151
