-0.20015779 6.875556 1.2214689
-0.8187746 5.2167845 0.17036241
-0.32253018 8.195192 -3.3075452
-0.7929859 7.4702215 0.3840025
-1.2417923 2.649846 1.3358932
-1.2904747 7.3641615 -2.5437183
-0.66005445 9.596182 0.95588946
0.10825251 10.371887 1.0365436
-1.8401027 4.5991735 0.8626499
-0.37332654 7.0589466 -0.41913718
0.023509342 10.449577 0.5823109
-0.49670386 6.884222 -3.1220362
-1.5712998 3.3654017 -0.33653378
-1.687237 1.9007826 1.127501
-2.3967538 -0.6489576 0.9512713
-1.056061 0.99268484 1.1364515
0.14237538 9.2681675 0.9521253
-0.40809178 10.921852 0.1904378
0.64077806 7.7177725 0.073260844
0.07008489 13.220457 -0.02772957
-2.1596308 2.9949899 0.5444126
-0.26565862 8.36087 -3.7531734
-1.5484335 7.732239 0.16839117
-1.3789732 4.934432 -0.33653504
-0.45510358 12.476538 0.52686477
1.2773361 3.4275594 0.8450451
-2.0317812 2.4736862 -0.051325306
-1.000874 3.959064 0.5262939
1.2100244 5.698163 0.53177345
-1.0553339 9.833275 0.8883356
-1.1507633 8.337048 1.2057273
0.0325905 3.4048314 -0.3846684
-0.8466917 13.366692 0.54847467
-1.0418215 5.786496 1.575366
0.8095193 1.6539631 -0.24212751
-0.048457935 9.119858 1.2984526
-1.1268866 4.7060156 1.2302288
-1.7609832 7.5823975 0.64666474
1.1620557 8.256445 0.94208837
-1.228833 6.116386 1.4422109
-1.0396123 4.697071 -0.16678262
0.6461047 8.204458 1.3061538
0.21245658 13.168718 0.3575917
-0.43792367 4.996296 0.0290603
-1.1354082 9.823313 1.2601328
-1.3237002 6.5332556 0.3879999
0.8160218 9.725697 0.095801294
1.4858735 3.1379175 -0.34703952
-1.3532681 8.200933 0.86555815
0.3580467 10.658588 0.42850298
0.532035 1.1213152 0.23114333
-1.5398371 1.2987494 1.3576458
2.3069978 8.411854 1.020006
-0.049000934 9.59973 -0.06645468
1.0553703 7.15874 0.54141676
-0.043364473 7.557083 1.5316564
2.0322933 -0.39821756 0.4458316
2.2530718 -1.5310094 0.7889136
1.3945196 2.9018059 -0.015579669
-2.5245366 9.627722 0.65798104
-1.3670285 10.019909 0.24539906
-0.8879812 7.3416767 1.5696938
-0.8605449 3.8319511 1.1873181
-2.260363 0.39522558 0.33173704
-0.017295793 12.453781 0.60249805
-0.008037966 9.750264 0.4069087
-1.7507465 7.7614813 -2.9002814
-1.5349593 0.33882362 0.9565053
-0.32371122 6.6939707 -0.5166466
-0.57756245 2.3220825 -0.068138525
-1.978498 0.3689009 1.1339519
0.26293522 7.535513 -0.016748674
-0.7055154 10.068239 0.8448349
-1.7533672 1.0071237 1.2207148
-2.5642664 7.6658545 0.18346249
1.0445724 7.028675 1.2718463
-0.45443058 11.784544 0.7129185
0.6705297 5.2608805 1.6826947
-0.48505706 2.8399992 0.39189613
0.41600537 7.1552258 -2.9684849
-0.40627366 2.4533024 0.22933218
1.9482553 1.4247842 0.24433851
0.32470483 1.8593428 0.22783807
2.3621588 9.023535 0.9077759
-0.13856354 4.8796473 -0.66813254
1.7146747 2.1127882 0.9751307
-0.32589585 7.3976927 -2.660767
-2.79563 7.6388426 -0.41185457
-1.3773012 7.5430717 0.44354796
-0.70537156 12.050552 -0.3229906
-0.95056653 10.616503 0.93390894
-1.384656 -0.37216574 1.199655
1.8863573 7.439437 -0.52756834
1.5460277 0.61356604 1.1263082
-0.51393795 7.365507 0.6598518
0.9738525 7.1481113 -0.14305055
0.27133048 5.3024273 1.6568239
0.60890365 8.128027 0.11626111
-0.01166844 4.741474 1.4394417
-2.1295142 0.7144681 0.14275268
-1.0627329 2.3010793 1.3140855
-2.049914 -0.7374742 0.95040095
-1.0015182 3.5300817 0.899274
-0.28349203 8.08699 0.8331666
-0.36440086 8.503283 1.0724964
-1.6787748 10.564589 1.1225455
-0.182875 7.5047464 -3.3173928
0.37494785 8.95542 0.9003235
2.0769973 -3.5997396 0.776721
0.7050227 3.8201323 1.1458216
0.4644695 6.3650074 0.05871766
-2.007518 3.5535681 0.15767913
-2.913589 7.3338385 -0.48874992
-1.8758247 1.2894611 0.5015111
0.95747185 8.77763 0.66792214
0.9194362 5.575205 1.5810232
1.0876234 0.049575046 1.0842998
-1.1590636 3.1167145 0.039042227
-1.3656089 6.7857895 1.1063685
-1.9477806 10.449078 0.5018083
-1.7176266 7.2218885 -3.3995042
0.05022444 9.5527935 1.2723372
-0.6897677 12.818066 -0.36531025
-1.5691805 0.86444354 0.20708847
-1.0180202 6.589671 1.1372354
0.10000338 5.6973925 1.6648273
0.9067036 7.252554 1.6171143
2.006321 7.2476463 -0.1844416
1.2172544 -0.08788401 0.5794643
-0.13834316 11.652349 -0.66419613
-0.13233492 3.6188922 -0.10652012
-0.2506835 6.1567287 0.4066276
0.25925624 7.2626305 0.62143874
1.2091949 5.269228 0.71320945
-2.0068054 8.555455 0.7274524
-0.47076708 13.155903 -0.4259445
-1.483702 5.555606 0.2935624
0.82833624 2.9893665 0.0742289
1.441292 2.7320762 1.1067188
-0.4961195 7.6168003 0.014562383
0.4654562 13.238136 -0.05817926
-0.2007649 8.308985 1.604209
-1.5739818 3.385301 1.2195535
1.262239 9.758749 0.1891948
1.9060695 -0.7717687 0.3444031
-0.861346 6.94736 0.052105933
-0.5490004 11.386017 0.6427126
-2.0203133 9.416098 0.49624568
-2.6011515 8.966948 0.8283521
0.24917722 7.2984123 -0.38235545
1.0224543 7.8496323 1.3185835
-0.3513729 7.4254436 0.3193065
-0.6940173 4.7886467 1.1050417
1.00103 5.252987 0.044084065
-1.109261 2.6298103 0.580511
-0.9206953 12.688359 0.3604722
-1.1136429 4.1699505 -0.45241976
1.1649554 3.090095 0.23724324
0.3414871 1.8344903 0.628417
0.8479271 7.6175957 0.9781554
-2.3665104 7.101966 -1.270647
2.2834988 -3.9194422 0.35079342
-1.7451527 7.2273026 0.7970996
2.686247 7.394926 0.4421003
-0.8471106 1.2764533 0.91758776
-2.4156933 -4.6034613 1.3301711
1.4722621 6.3078117 0.8402972
-1.6681736 -0.57628417 0.9641049
-0.28348666 12.559204 0.86976355
0.854012 2.8628092 1.1401925
-2.7845755 7.1075487 -0.21033756
-1.4559937 8.850098 0.86054635
0.71676457 9.815463 0.49546152
-2.1660743 10.181829 0.35899913
0.09102252 9.388624 1.6331944
-0.7797576 8.430668 1.2148669
-2.5152726 -3.9060802 0.7433213
-1.5614572 6.4372654 0.9800204
1.5174096 5.5091305 0.8020257
0.037784874 10.889666 0.6037806
-0.94146156 3.5175433 -0.099399164
0.46434617 2.6049318 0.6082567
-1.8739476 -1.4254498 1.5171218
-0.3390448 13.590313 -0.32971382
2.0422606 10.30974 0.58493733
-1.1163071 5.811403 0.4713099
1.021445 0.77395606 1.1365817
0.16915658 4.867568 0.71526015
-1.396982 7.8233232 1.2750411
-2.379825 7.140847 -0.85976076
1.3980534 0.9068687 0.09302731
-0.12617111 8.789423 0.43615228
-2.2625666 -2.820418 1.1339788
0.26925915 2.4693775 1.1227894
-0.94537234 9.140619 1.3231293
0.0075745876 3.987401 0.074277595
-0.7348143 5.3494606 -0.4974128
-1.7490389 9.79718 1.3134797
-0.11976121 8.168438 1.2459567
-0.84415114 4.365861 -0.17194086
0.19597253 12.806709 0.52906394
2.627933 7.189145 0.08860016
-2.244979 -0.0038501264 0.12712622
0.8537512 8.072191 1.6406071
0.639307 2.8402867 0.33975142
0.45981646 5.5445337 0.56332266
-0.61332524 3.213777 1.3016872
-0.27776545 8.537491 -3.426755
-0.6593734 5.863367 1.3967488
0.5947535 6.528571 0.73434937
-0.2631212 7.8230896 0.2900915
-1.981931 4.64993 0.46798408
2.2301965 7.947193 0.7529162
1.8895767 8.806236 0.77052915
1.2411337 3.7949722 1.29528
-0.18162939 11.946514 -0.30210727
-1.7820041 9.888617 0.9401864
-0.14025617 5.55365 0.79249406
1.051578 1.6036615 0.08482619
-0.3618648 2.8900394 0.7936939
-1.1539867 0.55851185 1.0200622
1.4417982 7.0604467 0.64324975
-1.0711312 7.2227526 -3.6554046
-0.26810515 7.080238 -2.8751411
0.48682535 7.9216833 -3.1722803
1.8468606 1.383158 0.82933414
-0.52764845 3.5413465 0.44439185
-0.6262642 9.124674 -0.17234054
0.5536039 7.104741 1.6348681
-0.20639384 12.105257 0.64045924
0.15031967 12.455233 0.28093207
0.75060177 5.6677456 1.2693703
-2.0891957 -1.0747058 1.527981
-0.37809235 6.582616 0.97208
-0.07661598 8.189602 0.11083783
-1.0053601 7.294676 -2.8533635
-0.589065 8.767622 1.7051659
0.17505208 5.9578533 0.11036217
-0.7646774 9.187977 0.9608667
-1.1642959 8.017223 0.19414991
-1.7031703 0.6476073 1.1146195
-1.8442125 4.6313553 0.08388758
0.19946763 8.648426 0.6314733
0.5067331 12.8478985 -0.09470478
-1.1919789 6.860718 -3.744287
-0.7880994 5.517495 -0.09060089
-1.9450812 1.3429768 1.2919173
-1.7417564 2.8571157 0.42996508
-2.7269745 8.448143 0.552021
1.1929979 4.865469 1.3348136
0.41014308 10.329586 0.69221115
1.8171165 10.485344 0.8284941
-2.9694738 7.524807 0.2762395
-1.0058239 4.826187 0.86349535
1.0073864 10.060469 0.2816974
-1.9903626 -1.0532837 0.73208356
1.2583251 6.7925425 0.31670004
1.1265284 10.778437 0.7699033
0.7239721 8.21047 0.5139886
1.2790616 3.4171364 1.2194848
1.5417435 3.1523461 1.0300236
0.028531954 8.365988 0.9247434
-0.37498724 7.509219 -4.2574883
-2.259171 1.8615985 0.47585046
-2.7951512 -4.539694 -0.7091875
-0.761003 9.084629 1.6748538
-2.1654282 -2.4018497 1.3302267
0.99464834 10.073399 1.4832165
-2.0943518 3.8706284 0.44613045
-0.25677562 12.911745 1.2658737
0.9473829 0.42395735 0.87406564
-1.9842541 -3.9444542 0.8359529
1.3998098 4.7153425 -0.18241021
-2.8020287 7.4553804 -0.8390511
-2.1692324 1.5194104 0.3059889
-1.554342 3.1640353 0.7267103
0.59310186 4.554636 1.7046828
-0.90582025 3.4092026 1.3405786
-2.3068247 0.0070032794 0.87644553
-0.48799974 8.452997 1.4206667
2.1711926 8.641905 0.58821046
0.9138323 5.0742083 -0.41381156
-1.2908936 6.6114645 0.75157166
-0.123919874 13.775534 0.3195709
1.1153738 4.222968 0.9248264
0.024426237 5.633565 -0.6323453
-1.6212442 2.5100427 0.7400317
1.1478164 4.9420023 0.948596
1.46209 10.221222 0.7321191
-0.7846153 5.590252 0.35749948
1.074553 8.765903 1.4165759
-1.5538845 8.600182 0.17000288
-0.9350847 8.29155 0.87386906
-0.42536318 2.2107043 0.5491271
-1.1627946 5.5763273 0.036100812
0.3771568 2.9988847 0.6156161
-0.6137464 6.415346 0.40510672
1.6028068 8.932478 0.5176269
0.19933903 3.5988817 1.4854972
0.5977999 9.986654 0.86183333
-0.1132503 7.3266487 0.6764877
0.07768009 7.936516 0.9268409
-1.9292018 -0.725418 1.6279933
-1.1911409 0.2699681 0.45686758
0.06740183 11.456533 0.06524843
-0.9991423 3.5445428 0.5548365
1.1042271 7.4495335 -2.042935
-0.36889118 7.806772 -2.6562462
0.25891215 9.941963 1.1350532
-1.4885395 5.314225 -0.20452222
1.429768 9.816057 0.5668565
0.46714956 5.9687066 1.0397806
0.6819514 5.2940674 1.319412
-1.0541406 10.245407 1.1224928
1.2007632 -0.83591104 0.27885246
-2.1452017 -4.5887375 0.93748474
-0.3019489 13.028339 0.9175495
-1.0689442 6.7933226 -0.25307482
0.07825458 5.1793756 -0.64795184
0.5787368 1.1309648 0.6581165
0.20573632 8.425659 -0.19590175
-1.5622132 2.121656 -0.28342816
1.2857676 4.906513 0.54852057
0.20852627 6.5629234 0.5357008
0.19734964 9.051641 0.54976404
0.49111515 5.9998674 -0.13856629
1.9727967 1.8769097 0.3921005
-1.7204984 7.020912 -3.0592036
1.7878397 1.0796192 1.1176143
0.95536757 7.753024 -2.1457586
0.1283395 4.2013445 1.1141677
0.43474877 9.207354 0.23370329
0.87053823 -0.7526119 0.5924208
0.5074657 13.376165 0.33241338
2.0519028 -3.9865422 1.0771637
-0.70391047 2.4401731 1.1732881
0.5833961 7.016247 1.2401874
2.0040154 7.254655 -0.98449516
-0.47533798 2.451067 0.9001843
-1.0414326 2.7561173 1.0011721
0.9134177 4.82065 -0.066395625
-0.8866147 8.21637 1.5695331
1.0638561 9.590635 0.46242774
-0.15273774 7.933153 1.5950375
0.09129448 6.9342556 -2.7683296
0.44180426 12.7614975 0.90060955
0.034757048 8.588148 0.13845506
1.0757623 3.7896152 0.5466713
1.2449546 5.682726 0.058162607
-1.8552399 0.5210469 0.6996579
-1.0815752 7.287677 0.59358585
0.4643656 4.4051228 -0.53681135
-0.46364152 10.018215 1.1524706
-1.8840606 2.4425063 0.5118959
0.90864 2.3074903 1.2973108
1.1353264 0.1870288 0.033676885
2.0381947 7.5941725 -0.8202648
-2.3080583 0.03977497 0.50714886
-2.2221417 2.5959353 0.58262706
1.2041776 1.4870509 0.83750963
-1.1666484 4.0714526 1.5702276
0.59955204 3.6277862 0.09822345
-0.5457603 3.8490381 -0.54729533
-0.05458022 13.656664 -0.09357688
-0.7420577 3.0456219 -0.018589936
1.667386 -0.8823755 1.4522092
-2.9824052 7.429633 -0.09339318
-2.0912375 -1.7863991 1.419667
-1.5987413 6.1803904 -0.055454016
-0.09053175 3.823257 -0.49251282
1.4850905 8.553127 0.2835781
-1.2966163 4.7232895 0.61369324
2.0115561 -1.237838 0.6363212
1.1051807 6.6216497 1.3133354
-1.66891 4.028414 0.46792167
-1.5103507 8.972387 1.2744741
1.6849678 9.722618 0.2769789
-0.5462285 8.109143 1.1101704
0.3515187 9.229921 1.3052192
-0.96670187 8.331451 -3.7726688
0.5984931 3.4984145 1.4825575
-1.1427233 9.752014 0.05928
2.235448 -2.0008469 0.7700026
0.38747185 2.5126362 0.24932116
-0.6901344 7.5120096 -2.5613618
-0.09234211 4.7883224 0.017809536
-1.0823553 10.19409 1.5265815
0.05632878 7.612053 0.32128412
0.55042136 12.708342 0.29217726
0.60451126 7.2563686 0.05744598
1.7146478 3.9991179 0.79977477
-0.9837077 8.060697 -3.5087976
1.227098 2.26963 0.317384
-0.83840966 13.186321 0.91572094
-1.4062579 10.085749 1.0412574
-0.63962734 7.161253 -2.748839
-1.4627085 2.361309 1.3216858
-1.0938311 3.114594 0.6654483
-0.22343238 11.448941 0.802232
1.2238393 6.219508 1.1316805
-0.30671257 13.299963 -0.06654104
1.0713944 9.414561 0.047634564
0.8901955 1.621144 1.1104096
0.9173757 5.0698175 0.3786795
-1.387202 2.0120378 1.3540843
-0.63844407 3.481215 0.9901129
0.9310328 4.606286 1.071552
0.7144762 1.8250282 0.7693839
-1.9294856 3.1761298 0.7380738
0.8318982 5.3921175 0.618793
1.0119395 10.714422 1.156812
-2.4495463 7.1783447 -0.39782798
-2.2937846 2.2153926 0.6835724
-0.909055 4.4518642 0.961289
-1.0497289 7.771866 0.5263784
1.122266 6.7575445 -0.05452366
-1.5952551 4.5631924 -0.24534556
0.6900705 9.358433 -0.055156775
1.386827 7.586465 1.1923869
1.5640132 0.7222065 0.41598696
-0.4543807 5.4257 1.8660696
-1.9765596 -0.58299744 0.58682394
0.058173835 4.6054344 0.37544084
0.8688021 8.478657 0.25204647
0.37775713 8.80118 0.27420306
0.20234743 7.029833 1.3719909
-0.22264934 5.9852924 0.10042612
-0.33362287 9.53557 0.2344136
1.5292072 7.4667444 0.8260622
0.4965945 2.8113966 0.99632335
0.31952077 5.177102 -0.09493081
-0.34053612 8.870377 0.118851125
-1.4626646 2.7669973 0.0011578783
1.062264 6.481267 0.8693392
-0.97098863 5.581959 0.75274014
-1.2576814 5.9999523 -0.17318934
0.20428872 7.3037024 1.7363331
0.46243894 9.14959 1.6671288
1.331552 8.017794 1.2657194
0.78007734 9.628782 0.85683465
-0.16121303 12.366858 -0.40846813
1.4880564 0.27640826 -0.19079816
-0.97607946 8.488363 -0.18902424
0.39569956 9.634218 0.32480758
-0.94137204 7.9755535 -2.9873147
-1.7434986 9.779581 0.55586386
-0.32790512 9.914 0.7761481
-0.65074265 7.88328 -0.2502038
1.0293641 9.036516 -0.034832843
-0.18515131 12.656149 0.19337526
-0.24247387 4.889436 1.095716
-0.09945647 7.277871 1.2983131
-0.42346555 4.589019 -0.64331484
-1.9315813 -4.597781 1.3565438
-1.5725603 9.7316265 0.20363975
-0.035394244 13.219898 1.1693931
-0.74464464 2.6490393 0.115844384
-1.2542078 4.326956 -0.08212827
-1.1390483 10.716343 0.56856394
-0.8146893 6.956753 -3.4610186
-1.7553346 3.7407722 -0.20311853
-1.8007545 9.09618 0.70273954
1.4457594 9.872444 0.9834095
-0.7653749 7.0751457 0.40679067
-1.4433501 2.5379019 0.39365953
0.48569447 3.2682056 0.23722646
0.15273136 2.7772713 0.9034761
0.72635055 6.1969376 0.80573833
-0.9326048 4.1399097 0.15486151
-0.9603044 8.968607 0.61589384
-0.8111053 13.160914 -0.11548862
-1.4209352 0.9938972 0.55176485
-1.1312768 5.1131744 -0.050339334
1.5905093 4.5771837 0.14504561
-1.7164903 0.26621902 -0.10087451
-0.3513118 7.743327 -2.2752914
1.3463411 6.3304834 0.43550658
-0.4039653 4.8601246 1.486115
0.42256203 1.4816138 0.76619387
0.022041678 3.433801 1.1570859
-0.9741291 7.664653 -0.22288951
0.47704208 10.280872 1.1261663
-0.18552394 6.821621 -3.7960637
0.22826898 5.486927 0.22396562
0.7502905 10.93713 0.87397313
1.123446 2.4756522 -0.44625932
1.9227717 -0.0740125 0.28796148
-1.0123656 0.9621767 0.73777163
-1.6429303 2.9220562 -0.31793565
1.6065559 -0.8226229 0.073972076
-2.645737 8.500505 0.19226438
-0.7783475 12.424978 -0.13213828
-0.9595329 7.9975805 1.2048639
0.5253425 7.917198 1.6640112
-1.0316434 2.7689648 -0.23686674
-0.584836 1.8139219 0.5317763
-2.793385 7.8054857 0.01938239
-2.1982589 0.3596387 0.7384393
0.17488325 6.9719563 -3.587994
0.23785645 12.115667 0.61027193
0.8327278 9.346647 1.6282263
1.7884927 7.544346 -1.151818
-0.45930088 7.665721 0.9193022
0.5199561 5.665097 1.6410818
-0.80325216 13.494247 0.18460268
0.012152977 7.207155 0.2770068
-1.0069845 3.0208778 1.3805909
0.14200303 2.6088958 -0.095724806
1.7271197 1.3953586 -0.06868122
-0.42577058 5.381935 -0.1713314
-1.3587396 7.8756113 -0.16035548
-1.7221503 -1.6988177 1.30548
-1.1347082 7.256463 -4.0578804
2.1845603 9.255434 0.2524103
-0.25444782 5.9080763 -0.6083237
-0.3028983 7.609501 -2.9745846
0.6615155 3.9447775 0.44370186
1.2199001 5.3264933 0.34486344
2.1460571 9.745899 0.97143304
3.1160808 -4.7764874 1.5518284
1.9802461 -1.8785365 1.0317073
0.20260213 6.8935275 1.7395406
0.48028344 8.74642 1.6636939
1.4079657 2.7446632 -0.37987655
2.3138838 -2.7972326 0.9527638
-1.7963731 1.6893566 0.31650203
-1.5685064 7.6641045 -3.239565
-1.2516098 7.2116165 1.4537311
-1.5074842 0.27990592 1.380291
0.002338136 12.242838 0.98905396
-0.6015854 7.16183 -3.7665877
2.1039982 9.645065 0.3009923
-1.1243701 7.2027874 1.0420263
-0.016750429 12.022581 0.32328826
-1.4351685 0.268726 0.17803386
-0.50777256 7.523819 -3.5321627
2.349959 7.1599393 -0.3163591
1.1629491 1.7667272 -0.32670134
-2.2777987 8.250551 0.48213857
-1.3339097 8.786045 0.47186336
0.16469353 2.4361792 0.7046293
0.61752325 6.0459156 1.3650386
-1.0138719 3.7150846 1.5472608
0.27362603 8.335646 1.3521285
-1.0610726 1.8522055 0.72134423
1.9371562 0.6916344 0.37668604
0.91541886 6.8612213 1.6053631
2.5193968 8.6425495 0.8320571
-1.33429 9.24835 1.3985126
0.7678522 10.664036 0.5662793
-1.3661826 7.0528803 0.77639174
-0.76275957 8.7213745 0.8945713
-1.7351317 3.2681456 0.39365643
-1.2213662 6.939142 0.44161826
2.6391773 -4.0293627 0.26755077
0.3689919 6.8737736 -0.41424787
2.225412 -1.0996716 0.86751485
-2.653728 -4.271164 0.67178047
-0.28185153 8.649439 0.7530668
-0.84500396 3.1281075 0.98333097
-2.087819 -3.5138526 1.2231905
-1.800797 8.819984 1.0165577
-0.8518728 2.6823697 1.3713143
2.0963817 -3.0559902 1.1484933
0.17826423 3.6260796 0.11695802
0.76189744 2.5151377 -0.42298275
1.5680492 1.4170382 1.1419969
0.48237517 9.383196 0.6635097
-0.34408432 4.5236034 0.36522853
-1.7071261 4.9319334 1.1038766
-1.3631365 1.0332541 1.2319689
2.7047849 -4.624056 -0.01122682
-0.27737445 3.207004 0.53758264
0.21593332 3.8477206 -0.2526558
0.35380232 8.022593 -3.5214367
-1.8530128 -0.3485698 1.6058073
0.29915375 8.332272 0.3157711
-1.160944 4.97497 0.33296752
0.5222944 12.4829035 0.53311944
-2.6542425 8.839714 0.49097645
0.82345927 1.411969 0.71958077
1.3139229 0.7067454 0.8206434
0.7853594 10.471241 1.3993523
2.021524 -0.09810734 0.72205293
-0.68759465 7.504878 -2.2043295
-0.5882418 4.1277266 0.46546274
1.934393 2.2638488 0.30935568
-1.7592509 10.192112 1.2522204
0.20389166 6.162921 0.43988353
0.7157099 5.4808903 -0.43426293
0.85086334 4.92484 0.72247505
-0.864653 12.753433 0.9583441
0.7858772 6.7510443 0.99895525
-0.3356893 9.109501 1.6095879
-0.61189353 6.792343 -2.578082
-0.9597044 4.3617 0.58400154
1.4739773 -1.4583352 1.1286101
-0.0054300576 6.588169 0.9693433
1.27926 3.7455397 -0.05963918
-1.3784697 9.633938 0.69753325
-1.4639103 6.95214 -3.4822483
-0.56791604 12.53418 0.1560975
-1.8476746 0.6449034 -0.16925597
-0.6857077 8.84613 1.2889833
0.114508405 3.5745077 0.7994292
0.4116286 8.109556 1.0451221
-0.7380445 8.197853 -3.234488
-0.16533142 7.32673 -0.42735547
0.34803784 3.6507206 0.43727458
-0.8181607 7.3722153 0.031537496
1.8054638 9.879143 1.1959579
0.43340325 7.460614 0.33021766
-0.40590012 12.203428 -0.12821433
-1.4211066 2.8353856 0.8187417
-0.976784 6.8820324 -2.5987177
0.46527708 7.219535 -3.4173694
0.7449051 4.6949263 -0.56456375
1.8863027 -0.67950416 1.0463853
-1.1397359 3.7119508 0.19213083
-1.1225777 5.370755 -0.32713693
-1.4209169 7.2920513 -3.0753646
-0.31745458 3.8962207 0.68644
-0.41101873 13.706459 0.084999874
0.6301799 9.015425 0.5796609
-1.9716845 -0.19313604 0.44711703
0.89711547 5.9558287 1.0518222
-0.7874409 6.5782623 -3.2743683
0.79581 -0.29876226 0.5083461
1.4347944 8.984137 0.17624587
-1.3759022 3.742679 0.45962757
0.027043782 12.805288 0.870623
-0.1360786 7.0750484 -3.2606237
-0.940264 13.107471 0.24662843
0.38709956 12.152788 0.23476696
-1.2833345 -0.15580902 0.8803779
0.6746403 5.2183876 -0.15663704
-2.3247643 -3.8261557 1.0967381
0.8301443 3.9870145 0.7916393
1.0731432 5.2197523 1.4349072
1.4125271 9.999237 1.3820858
-1.3657961 2.312634 0.041172333
-2.0049143 1.4360242 0.0057022427
2.0244346 -1.5632534 1.377487
0.6852783 0.3909074 0.52403224
0.19766432 11.921913 -0.47259164
2.3802223 -3.6407928 0.60189545
1.4432874 -0.15627402 -0.091174364
-0.2876131 8.061216 -0.2935285
1.6574125 -0.037825607 0.6186602
-1.1766629 2.041903 -0.25276357
0.14503548 6.223405 1.2912111
-1.4953494 5.7000513 -0.16262132
-0.90894926 9.444653 -0.059902154
-0.7524172 1.6335127 0.21117678
-0.62316144 8.499229 -3.5989628
0.76315665 1.2506001 -0.12559581
1.5270486 5.007084 0.10696271
-1.1868949 1.9441688 0.17724484
0.16123939 4.5690117 1.795099
1.3067782 7.6370068 -1.8438592
1.5663989 7.5698576 -1.4833157
1.6872947 7.279336 -0.84732664
0.20188305 4.1140366 -0.6131706
1.0810261 5.4920607 -0.25789672
-0.73493147 10.804533 0.47888708
1.0786188 3.149333 -0.20600852
-0.72873557 6.553545 -0.38470852
-0.4292314 7.5212355 -3.9148335
-0.57742894 2.0491066 0.21345687
-1.3152955 6.1819096 0.5951648
1.7098632 0.6619878 -0.03350468
1.144968 1.9565036 1.2912829
-0.6161643 8.382427 1.7678887
-1.0778798 5.1593113 1.617419
-1.2997694 2.4540362 0.9459597
-1.5647993 7.3381124 0.08889118
-1.6972423 4.976387 -0.08080134
0.6077018 2.1900673 0.161143
-1.6414585 8.482259 0.9323643
1.195231 3.043962 1.1431754
2.4674644 -4.6100636 0.38536227
-0.49554634 9.529753 -0.10326958
0.40040565 9.578864 1.0857654
1.8949254 0.31369036 1.2677455
2.1572556 8.73044 1.0742724
-1.6785681 6.5172396 0.22838384
-0.19813919 11.607304 0.402447
-0.47072574 6.6176176 -3.570219
-2.7860117 8.108452 0.32139084
-0.83416855 1.7008994 0.9502202
-0.1176471 6.5684595 -0.19933423
-0.8892703 4.7867107 0.5154747
-0.06962069 13.359149 -0.4205851
-1.6500974 -0.23726106 0.7099067
-0.058813065 6.713992 -3.0649352
-0.8141537 9.541799 1.3055089
-0.89118004 2.0332775 0.45363492
-1.2228796 0.9458368 -0.0043957345
-0.8126258 7.3487444 -3.3644814
-1.3991237 0.80235386 0.8956306
2.468031 8.07716 0.3323791
1.5396082 -0.71626115 0.42804098
0.7937523 5.9911194 1.657351
-0.25179225 11.50972 -0.2223377
-0.58734727 5.911255 -0.21461523
-1.8556726 7.9431143 0.5417483
-0.8376105 4.822442 0.10468158
-1.5410433 6.0766783 1.1771233
1.404995 7.1445446 1.0935855
-2.2764406 1.402632 1.039469
-0.5326327 6.8216887 -3.9513688
-0.5340351 13.26428 0.24087909
0.2955026 7.3364944 -2.6462808
1.069715 -0.5011178 0.36222
1.2269039 5.537485 1.2452617
0.7112378 3.2872329 -0.17441928
-1.4707351 8.38726 0.53991103
-2.49431 8.102816 0.120376915
0.1068397 3.2872763 0.43320566
-1.5052202 9.255911 0.9704591
1.2795765 9.051641 0.6842501
0.5249194 6.5342894 -0.36883867
1.2143273 10.390419 1.3333824
-1.2966473 -0.103316635 0.44804758
-2.332026 -4.607563 0.47391367
-1.0111489 6.521187 1.5394177
1.3374765 2.4329023 -0.05856608
-0.61458635 4.735779 -0.29086357
1.3968704 0.67694986 -0.2626326
0.3365854 11.022911 0.97514284
1.4743779 1.5654296 -0.2821798
1.4354956 -1.1045055 0.90438294
2.2687063 -4.288871 0.35216027
1.7406948 0.0040868735 -0.015352005
0.6003468 4.5292625 0.0791692
-0.0958166 7.807596 -4.095392
-0.4889763 8.060583 0.07270597
0.17981675 8.131292 1.7143693
-0.48966616 3.8441987 1.064959
-0.9799018 2.3122053 0.20693919
1.7031271 0.88070345 0.77328146
0.54836607 7.507698 1.6544437
1.6631618 4.8137445 0.412297
1.3229041 2.283032 1.1273334
-0.14042783 7.3830776 -0.061086558
-1.0701764 7.5455217 -3.164185
-2.6853862 -4.181794 0.29658282
1.7079213 2.8686132 0.7956897
-2.0273662 -4.256526 1.5733986
-0.009138485 7.4385433 -4.0723524
-1.2945602 -0.6595255 0.92085373
-0.88463545 3.3405318 0.25975066
-1.6393619 -0.42515814 0.34340882
0.6546923 6.6776104 1.3441143
-1.9067721 5.035632 0.2893752
-0.73382235 7.909849 -2.6560395
0.8125813 2.4959593 0.29833633
-1.2878957 4.343895 1.0785705
-0.2718231 5.044379 -0.3271588
-0.70077026 12.053417 0.08493331
1.5247483 3.257893 0.31000447
-1.3584405 7.4796963 -0.18098423
-0.84063923 1.2468209 0.44188464
-1.1468327 5.387596 0.37589735
-0.99243236 6.861718 0.8157525
2.584395 7.594157 0.19541481
-0.31208515 5.36281 -0.60435057
0.08031094 9.417818 0.5924053
-0.6481943 7.0946465 -2.342134
-0.3923645 12.7685585 -0.58614194
-1.4393713 1.5636983 0.1426987
-1.1243899 2.6664824 0.13901702
-0.5863073 5.694483 -0.5357702
-1.9769831 7.4726534 -2.6826854
2.0752287 -2.6080747 1.2396345
-1.6453643 4.494463 1.2128117
-2.0693793 1.8873684 0.11937791
-0.6358093 12.439253 -0.5068214
-0.6424922 5.7969074 1.7765133
-0.7708416 9.575375 0.30428594
-0.6160811 5.7226734 0.7262187
-0.040543072 6.7648525 0.24651238
-1.12883 9.440739 1.0694789
-1.7099869 2.51579 -0.26928777
1.9041224 -2.196691 0.8077123
1.8182077 -2.2834573 1.1453121
-1.3554358 7.7526197 -2.568624
0.7706469 3.9753466 -0.20616737
-0.97073424 6.2366066 0.38859648
0.61865103 7.1134415 -0.306749
-0.71609855 9.84096 0.01787216
-0.5379859 9.837732 1.5426743
0.45125628 3.9812498 0.09648724
-0.902089 6.1809025 -0.2791224
0.9325963 5.291766 1.0198274
0.79395 10.229708 0.6256751
0.868525 6.9503584 0.20333713
0.7883106 0.05870621 0.37129468
0.056574143 8.108002 -3.821906
0.96868515 3.5946183 -0.21860427
-0.9884751 8.096354 -0.17664608
0.47513014 2.3460598 -0.23765197
-0.6348604 11.1858635 0.36022937
-1.5604603 5.3651085 1.1707821
-0.6054863 8.328955 -0.21351978
0.3807552 9.619087 -0.03927263
0.16318884 12.531014 1.1246777
-2.3289762 -0.34316033 0.2719398
-0.14415213 4.3784657 0.027656019
-0.11780891 8.452436 -3.0737824
1.4032583 -0.07357092 0.9298521
1.7924712 0.34823024 0.17453137
-0.10473581 3.8024726 1.1226656
2.078774 0.97272885 0.89810276
2.101224 1.0960646 0.5329522
1.4599087 10.113434 0.32191586
-0.336922 5.7072525 0.42570138
-0.5049815 8.72806 -0.22388628
-0.6978855 3.765123 0.71061933
-0.570627 3.1369004 -0.3969609
-1.3965847 6.458786 1.3444748
2.3409562 7.751383 0.007519783
-0.84123313 12.515663 0.6773838
-0.63178277 13.49674 0.8426276
-0.26871407 4.185957 -0.58902204
0.3928193 2.7315164 -0.3764543
1.0768285 2.5121677 0.9385311
1.2605722 5.0809107 -0.21468106
3.0434191 -4.5838423 -0.23084432
-0.62858284 3.6620998 1.4608803
-1.2403952 3.6085835 1.144659
1.1287429 4.1596413 1.3572466
-0.6970154 9.734072 0.6251514
0.33151108 6.978387 0.30850786
0.5986066 8.599102 0.5712193
-1.3811533 3.7506347 1.4643519
-0.8396667 2.0666995 1.1328247
0.4125824 7.281658 0.9751967
1.053693 9.401012 1.1491153
0.6213912 5.6023026 0.92961717
-0.9587252 2.367957 -0.20950478
-0.6742878 9.467159 1.656329
1.4747059 4.7852087 1.022916
0.15100332 6.5380363 -0.52644
1.5486104 9.214388 1.2448882
0.9683566 3.570716 1.3638694
-1.0003018 7.225133 -2.3911104
-2.2651505 -0.68909657 0.18796384
-2.2680597 -1.4132497 1.3204646
-0.3233592 6.4929237 1.7774043
0.80317616 6.748166 -0.2510184
1.773546 3.078505 0.008336358
-1.9377337 3.8484454 0.81047535
1.0144897 8.30282 1.3399966
-1.3836322 10.416952 1.3507061
-2.0353208 -3.1057987 1.2606893
2.293039 -1.7685597 1.1273862
-2.988628 -4.587822 -0.3606732
0.74701977 4.2210197 1.5779607
-1.9287546 2.8055067 0.833989
1.95945 2.2179089 0.71385646
-0.028096031 9.674557 0.89935505
0.4675212 6.39334 1.154515
0.8249999 8.516825 1.6486938
-1.9678631 4.2828197 0.2742896
-1.0793958 8.736221 1.2189747
0.5299555 3.9784622 -0.5815704
1.4702308 4.3363476 -0.13691002
-0.91836214 6.0316086 0.78382516
0.60882306 9.019363 -0.12961757
-0.51641035 3.1783767 0.20671627
1.7246199 0.49791515 0.7709465
1.3022151 1.8610706 0.42681134
-0.2756635 8.13323 -4.040428
-0.61235034 4.5461035 0.65682316
0.3578384 10.039665 0.4591967
1.6410029 4.1636486 0.122880906
0.99675226 7.5397625 -0.12015079
1.1391568 1.3518124 -0.30887538
0.23495331 11.746 0.32674086
-0.39732796 8.448952 -2.7738233
-2.8928223 -4.782158 1.677146
-1.7211635 10.273499 0.8297454
0.55805814 10.013699 0.12592876
2.2037187 9.362031 0.98905706
2.0367947 -0.031022979 1.1143
1.3207409 1.3245542 -0.0030966196
2.528327 8.594717 0.4573741
-1.7757435 8.166718 0.80014074
-0.17154148 11.213955 0.40480566
-0.097589955 9.844671 1.5097241
-1.2389343 8.050755 1.5418487
-0.18723333 5.931468 1.3970487
-2.3407593 9.556574 0.30279374
1.0717729 2.8501596 0.4909253
1.2937202 4.071436 0.23819003
1.0684958 1.2615733 1.1098402
0.043995056 7.7965198 -3.104363
0.19285384 4.8425884 1.1017787
-0.286955 3.1631474 -0.175163
0.05805038 8.333027 -3.4788375
-0.21833009 3.4198499 0.19567636
-0.14053202 13.415928 0.32377073
-1.2464199 4.554476 -0.4611572
2.0073571 -1.0977399 1.4129469
-0.7988262 9.933109 1.2291412
-0.35277987 8.160412 -2.45329
-1.9861045 -4.227928 1.1242216
-0.6803467 6.5071325 1.781035
-1.8693962 -0.834893 1.2492061
1.3865802 3.5498357 -0.38174492
-1.7098746 -1.4830709 0.95240307
2.1564593 -3.1219935 0.7854037
-2.3634195 9.213493 1.161222
0.8955895 1.937073 0.08294917
0.076711595 7.0781393 0.9856056
1.6027076 5.076187 0.77003074
-2.5183368 9.232576 0.3995638
-0.5046096 4.1818066 0.090214595
2.6032386 -4.2016983 0.92038786
0.9948411 4.231965 0.4885831
0.028129436 7.5250998 1.0159867
-1.730541 3.0824332 1.1039927
1.8979161 2.5976405 0.58098364
1.4578164 4.0400295 1.1081643
0.7921356 4.237561 1.1381884
-0.027321238 4.532301 1.0476227
-0.6900182 7.9390507 -2.2856293
0.8622688 7.6869917 -2.5021205
0.744478 4.4529705 0.74994814
-2.3235092 -0.32741088 1.1271982
-2.250803 0.7226082 0.5410063
-0.113008276 5.3689747 0.41899592
-0.49190086 6.8576307 1.8369606
2.2020411 7.7839346 0.38156825
2.5946546 -4.595152 -0.6741984
-0.7390759 5.1037855 -0.20597288
-0.3140212 9.54059 0.6405194
-1.8738549 -0.7397262 0.26269215
-0.23802644 4.6135826 1.8183832
-2.712976 8.582142 0.9036273
1.3669314 0.48536158 0.15707502
-2.6235719 -4.5954533 0.1480909
-2.5182424 -4.2164116 1.0732768
-0.1847626 7.2374487 -3.6559901
-1.6337194 3.593789 0.18225911
-0.8938978 7.7904673 1.5644794
-0.6151829 12.392321 0.97991407
-1.4875245 3.9479623 0.04613658
1.5389681 1.2638428 0.27006227
-0.006680792 7.1969204 -2.492931
-2.5917335 9.306173 0.82187366
-0.011711292 3.1620455 0.8127798
-2.5871725 7.222929 0.06853373
-0.0013354309 13.197437 0.6795305
-0.49252945 10.54052 0.2380647
1.8336155 1.800859 0.029877592
1.0854218 5.986761 -0.08952616
-1.3762739 4.7557173 0.030491367
-1.510853 7.472722 1.1641908
-1.6011403 9.388849 0.49596423
0.6059177 5.358346 0.22182295
-1.2765081 8.276818 -3.487033
0.6778561 8.60791 1.2990034
0.65685916 3.3438392 -0.55805445
-0.9117018 8.566771 0.5124098
0.33072245 13.111603 0.9696076
1.3688741 7.4179554 0.43141294
-0.29849207 5.3389587 1.0860636
0.2986322 7.439226 1.3448863
-0.16155583 4.952669 0.3814016
-1.3978257 5.0882998 1.392916
-1.0187383 5.8197727 1.1385934
0.81471026 0.7711923 0.74127114
2.0046291 8.3538265 0.86164963
0.21488655 4.5443516 -0.23742181
0.8852322 3.2633896 1.2401056
1.5851693 2.0455232 0.19615954
-1.0714426 5.0991077 1.1812725
0.21486288 12.294596 -0.57184696
0.04159286 8.017778 0.5029876
1.863522 3.0249715 0.44677776
-1.2710123 2.0726585 0.9719566
0.33576047 3.1518188 -0.49574614
-0.029341966 5.548295 1.2962363
-0.21480033 11.816587 0.07493369
2.3232198 7.404009 -0.6396457
1.1241865 5.875659 1.3853784
0.2540052 2.8382134 1.3122487
-0.56217873 8.908794 0.5347309
-0.31804293 10.222353 1.4436469
-1.3206859 9.173449 0.65477574
-1.0927124 7.6720695 -3.6119766
-0.0037954468 8.5882 1.3034489
-1.2727058 10.769104 1.1969476
-1.1503322 5.1710463 0.71336603
1.1061406 9.009644 1.0510817
-0.700717 10.440681 0.66463363
-0.53096306 4.911824 0.39407438
1.1556251 2.6575975 0.20431468
-1.6755414 4.18064 0.91858065
-0.18651986 6.4715595 1.3680277
-1.1779659 8.339457 -3.102458
-1.6000867 -0.7324306 0.59185374
1.5524118 5.6362123 0.3566125
-0.011296343 7.9585743 -2.4677691
1.4751062 0.22009084 1.319227
1.0816422 2.6272712 1.2730267
0.17006835 8.538784 1.7032089
2.1689034 8.12133 0.16821402
-1.777071 4.2022123 -0.10772011
-1.470132 4.7543736 1.401833
-1.6740243 5.705185 0.9813869
0.21969387 7.664882 -3.391119
1.8122292 3.6501408 0.66861284
0.7933835 2.799889 0.733161
-0.80102956 8.346973 0.13978729
-0.5324589 8.561316 -3.157898
0.6476629 3.1587386 0.9092394
0.4287144 3.3610692 0.6929456
-2.0911717 2.713894 0.25064945
-1.714026 8.732744 0.5633637
-0.084062055 6.2767973 0.7208972
1.4906037 1.260248 0.74976563
2.3456078 9.453892 0.6393385
-2.043859 8.73031 0.31162113
2.1350737 -0.7666465 0.6836755
-0.47754174 12.937216 -0.02287662
0.35759062 12.593317 -0.37305427
-0.4618209 4.5120573 1.0031881
1.187284 9.192211 1.4498038
-0.89879775 6.2028418 1.2594001
0.21587086 7.113448 -0.059031233
-2.3669071 7.3831425 -1.8665142
-0.3423766 12.099117 0.9881972
-0.1973936 7.180709 1.6412327
1.2134299 7.2077265 0.16561556
-0.3639049 7.2855816 1.0429864
2.0469337 -2.0480614 1.3322659
-0.36284542 9.662212 1.1958859
1.3609598 4.054797 0.63641703
-0.99802697 4.016982 0.885303
1.0915499 9.164036 0.3658973
-0.13289508 12.0337715 -0.6841706
1.7135792 3.8955317 0.3835438
-2.3189888 8.475454 0.15351434
-0.75189257 4.561219 1.3902483
-0.32255715 2.7661595 -0.02260482
-1.838855 5.396389 0.45784497
-0.5288838 12.638348 1.1953552
0.4750573 4.700795 0.4912418
0.078874335 9.000368 0.13427457
0.41791672 12.4724655 0.0010161268
-0.5954187 6.1382465 -0.51969576
-0.9290457 6.4326982 0.7452651
1.419204 10.581966 1.041539
0.24549869 7.97633 0.06804377
-0.11737539 5.3717003 1.7293746
0.34838754 8.230297 0.6926261
0.45433384 3.878664 1.6000843
-0.8925523 10.469431 0.2998705
-2.5152984 7.471631 -0.65813637
-0.82430553 6.67618 -3.694952
2.1494675 -4.290292 1.4191861
-1.7261066 5.8049097 0.110474855
0.10653758 12.863836 1.2073994
-1.5675828 1.9325712 0.07085933
1.2091506 4.8501177 0.18302912
-2.688991 7.38451 0.4355626
2.4421115 9.007359 0.5402483
-1.1838899 3.4354372 -0.393538
0.04654386 6.9000244 0.63334095
-1.3696139 0.64372003 1.3421159
1.1131022 0.61104816 0.5277585
-0.14785078 11.132383 -0.020109858
-0.668836 3.213395 0.6487106
0.85193765 6.523719 0.14274773
0.05000879 5.9460325 0.9612123
0.5983319 1.3617752 1.0735044
-0.73822 7.138526 0.80947363
0.33298683 10.522892 1.3828435
1.4124355 6.0055647 0.1892634
-1.545099 8.143354 0.18911344
-0.59287524 9.293308 0.6139821
-2.1580176 -0.21353817 1.452791
2.533331 7.479167 -0.2232362
0.43782133 4.2090683 -0.20912117
1.5068061 1.7170622 0.77758586
1.822114 -1.0720565 1.0663998
-0.8064852 8.49094 -2.9270344
2.215485 -2.4516258 0.78539646
0.19566533 13.6069565 0.5332724
1.7847152 9.98156 0.7025188
-0.29305154 6.6930056 -2.7794006
-0.068105206 5.197096 0.04016973
-1.9705222 -0.40444607 0.07693781
-0.19308075 4.623186 -0.32759386
1.1654582 10.418484 0.44891793
-0.07603979 7.6045837 -3.6853552
-1.3521385 7.492275 0.81873
-0.56829846 10.198481 0.09677008
-0.22440052 9.186098 0.37070704
-0.38012403 8.144169 0.45378023
-0.39552253 6.555438 -3.1778412
2.3416548 -3.3560796 0.95384896
-0.9289756 6.6800356 0.40626097
-0.97982454 3.7985163 -0.4823466
1.2572072 10.160957 1.0622377
1.4273732 8.844101 1.2777035
0.13876855 13.483702 0.91228163
-1.3474281 7.6699305 -2.9267073
0.5225725 8.526936 0.084450334
1.1785834 8.771288 0.38097697
0.90268123 5.6331673 0.2887929
0.88767505 6.791396 0.5781362
1.1191943 0.25814307 0.44732863
-0.2821821 9.338633 1.0018046
-1.8944669 2.1513133 -0.11766018
-2.1343908 9.710148 0.7531228
-2.0692644 -1.5376134 0.7807603
2.0762982 9.1088705 0.6135706
-0.2507283 6.210801 1.0893989
-0.6144022 6.162899 0.0934097
1.7069683 0.15627924 0.9676764
-0.6869428 1.5089219 0.6492835
0.12149832 7.670932 -0.36532384
-1.8895602 7.103829 -2.7673278
0.12797338 4.9384947 -0.32546318
-2.1063428 3.4552436 0.5210488
1.4268732 -0.18709886 1.3190298
0.763909 8.391081 0.8928559
-1.7694218 5.3945084 0.04892897
-0.54982805 8.104448 -2.9209566
-0.5909722 6.6498857 1.4158168
1.4919975 1.8973807 1.1028249
-2.0568943 2.4519286 0.8987626
-2.167122 1.0611931 1.1915405
-2.0767083 2.0773325 0.9830328
-1.232154 7.598028 1.5283408
1.1267993 1.8679235 0.872341
-1.6772988 -1.0489099 1.5415616
1.0480282 9.816128 1.1401241
-1.0894034 1.6078572 0.3839925
-2.604566 -4.608288 0.8878833
-0.61291194 6.0123234 1.0357304
-0.2833146 2.5590231 0.58931947
-0.34197754 4.5094395 1.3580523
-0.71924245 8.781223 0.15054107
2.0179272 -4.6201496 1.3284144
-1.4746177 1.2192087 0.90142167
1.1132324 -0.16824651 0.19688702
-0.78332305 7.7710943 -3.3595467
1.6783152 -1.3272202 1.4182217
2.2717128 -2.264719 1.1008542
-1.729065 3.6188974 0.5861304
1.4788051 10.622604 0.6618526
-1.2110462 7.904625 -3.244835
-0.5216654 9.249575 1.2998409
-2.3148942 7.1203814 -1.6507456
0.09275234 5.209523 1.0275702
-0.56055415 4.9410667 0.7804731
1.0888247 8.013781 0.5894747
-2.0174837 9.798195 0.26912385
-2.6397853 -4.347909 -0.16371223
-1.0801861 6.715476 -2.961288
2.1145258 -4.054617 0.6764319
-0.9297583 3.1580944 -0.32143384
-1.6822789 1.5344994 1.1141217
-0.17154138 13.038202 0.25660446
-1.6396251 -1.043798 0.95704544
-0.0906032 6.1544247 1.6540103
-2.1989813 8.803183 0.99320424
1.5517051 8.956974 0.9438
1.1934311 9.593982 0.81630826
-1.9464684 1.0247846 -0.038974985
0.17909724 5.301919 0.6440942
-0.46722472 5.2405863 1.4958286
-0.9936371 10.118544 0.149645
1.6845758 3.4369893 -0.10929556
0.8332143 4.9020004 1.585077
-1.5325501 7.1207857 1.128808
-2.5895681 7.4699345 -0.19101001
1.9112248 -1.4567273 1.0402434
-0.31904122 10.640373 0.5546386
-0.7486805 3.482335 -0.49073768
-0.10105339 11.087925 0.9594492
0.22312555 5.602421 0.92819273
0.5597551 10.161165 1.5287569
0.86030483 8.023382 0.98996353
-0.13383639 12.926527 -0.21506907
-0.13451484 4.168685 0.3910858
1.0642097 0.7647476 0.20901564
-0.51380646 4.3120556 1.6548033
1.597148 5.2427835 0.4388607
0.80844724 4.429652 -0.24219796
-0.27899462 12.268511 0.231237
-0.5784452 8.361023 0.7633836
-2.3050103 8.373558 0.87694925
0.24326435 10.345541 0.21488354
-0.8035194 12.2979145 0.34277803
0.16660702 11.039141 0.24976265
1.7139254 -1.7787609 1.2997751
-1.0790472 8.7972145 0.18891683
-1.174794 7.211316 0.17894697
-1.1679564 7.866781 0.8971424
-0.22859803 13.464899 0.9744805
-0.5939808 7.9898205 1.7929195
-0.43228525 11.373352 0.09185669
0.051791884 6.371975 0.17659277
-0.48521787 5.3555117 0.6789968
0.124051526 10.200209 1.4554498
0.3451407 10.665298 0.8691616
0.948951 3.821391 0.17205533
0.16417322 6.4667444 1.703325
-0.16798934 10.329691 0.13272017
0.26691836 7.9887867 -2.779499
-0.24259481 6.5899153 0.55128133
1.404495 3.1094432 0.63392234
-0.5119026 8.539137 0.4286039
-1.6960323 6.82141 0.8980169
-1.076494 1.8223302 1.2548518
0.0013145744 2.8442392 0.5471654
-0.051521145 10.720917 0.21281198
-1.9536643 -1.2625244 1.1412933
-0.3119167 7.119748 -4.105404
-0.2807287 5.7907286 1.8003361
-0.62705815 4.16311 0.8524642
0.5695934 3.6887255 -0.27716106
0.62242496 7.5040464 -3.1441255
-1.9298763 10.611132 0.8171445
0.28086823 4.7693434 0.07755959
-1.866647 -0.37523508 1.2364864
1.6633332 10.265757 1.1541958
0.51257396 7.591671 -3.5356607
0.87297 10.192268 1.0987935
-0.32181433 10.867809 1.2148695
1.9889126 8.495844 0.20254329
0.6161244 4.9449244 0.17166835
1.3289919 4.4694405 0.41556767
0.8033782 4.2102404 0.13789767
0.2506644 7.656996 0.67755675
-1.7488263 9.018063 0.29499638
1.8899696 9.472406 1.1724886
0.9098028 7.442795 0.2613225
0.89841795 7.9154043 -0.19391674
0.12459603 11.291719 0.71983504
-1.8584563 3.4816191 0.9607901
-2.8817239 -4.579485 0.4797603
0.74634373 3.5555491 0.4988963
0.25729585 2.892828 0.21895576
-0.8760226 7.5497856 0.8298093
0.33776546 12.41637 0.83261514
0.8908365 0.068429336 0.75345755
1.5222912 2.8390603 0.3628319
0.11594136 6.0911617 -0.5774605
0.029760934 7.094577 -3.9306421
-1.1278648 8.188984 0.55449486
-2.1352134 -3.598773 0.80442405
-1.3727989 9.4081 0.0020743385
0.48638552 3.7508678 0.7906523
-1.1349938 7.1024933 -3.246862
-1.4197614 2.9625907 1.2646778
0.86273205 3.5241566 0.8899864
-1.4485776 -0.8555511 1.2451205
-0.42412573 9.8820305 0.3603397
0.26283562 3.2331204 1.4493201
-0.75263757 7.309223 1.1666801
-0.7062398 6.6097183 -2.8798409
1.5317717 -0.3079397 0.35443097
1.3580875 -0.50828934 0.063795194
0.7806659 8.894093 0.2346336
-1.5590506 4.374322 0.17874119
1.1335719 3.39454 0.4892245
1.5775359 7.279517 -1.254863
-1.8298769 1.7521877 -0.18456358
-1.5832899 3.128593 0.067620024
0.26042998 5.830724 1.3237689
-2.0220318 -2.7989936 0.92805207
1.2409406 2.125031 -0.39405864
-2.4846249 8.464651 1.1531818
1.0461416 1.156203 0.13316554
-0.17919898 6.1236057 -0.22820723
2.209663 7.4066076 0.15529525
-0.21983615 6.3322296 -0.5719621
0.24151784 4.3397512 0.1493532
1.805305 9.284616 0.3230421
-1.666897 6.453141 0.62746435
-0.09323402 5.612632 0.0678069
-1.9083271 3.9194736 0.12181361
-0.9401507 12.970455 0.6266953
-0.71906817 4.195525 -0.5577011
0.50516367 6.1964664 -0.48477447
-3.0079145 -4.5698986 0.059836797
0.6433922 9.881559 1.2470217
1.0194199 3.1472502 0.8124517
-1.8707685 -2.137662 1.3448551
-1.2443687 3.9737554 1.1549888
1.7727776 9.242464 0.7973694
-2.2896352 10.381369 0.68444216
-0.95824766 9.811501 1.6264608
-0.31842935 6.4494457 0.12258279
-1.8560989 8.351778 0.42845225
-0.9079802 8.649979 1.5997267
1.0841386 8.618723 1.0407114
0.020201754 7.660944 -2.7297025
0.4067803 7.89472 0.40038556
0.21128029 2.188579 0.42413592
-1.5411775 -1.3036819 1.2799437
-1.0602939 10.237991 0.69747394
0.6447303 9.240877 0.9953306
1.4778588 9.594635 1.3052549
-2.2253656 -0.6309023 1.3924241
2.3371835 -4.597353 0.0423346
-0.8496875 12.797279 0.01651911
-0.6910325 7.6083193 -2.975481
1.760742 1.1292849 0.50052536
0.062935665 10.071392 0.7646029
1.0946317 2.932507 -0.5163785
2.4575233 7.1156473 0.41123706
-0.34668422 3.9588633 1.4713714
0.061406165 3.9835696 0.7823609
-0.059446346 10.093604 0.38789183
1.1418493 3.87355 -0.5076394
0.39210472 5.9252567 0.67490804
1.7451491 8.475222 0.55351233
1.4357827 9.373148 0.17013589
0.03001608 4.9610605 1.7525642
-0.51768553 11.974096 0.385561
0.6586474 7.4030724 -2.706049
-0.8451555 1.9887624 -0.06539363
1.462405 3.636529 0.61834335
-1.7281036 5.773052 0.55364466
1.7555616 3.300848 0.7246083
0.3347149 8.77644 -0.17991579
2.3219566 8.512882 0.172795
-0.07420538 8.827641 -0.18744239
-1.7395914 10.146261 0.3428328
1.5758193 2.4622688 0.25342572
-1.479699 8.182098 1.1922905
-2.0769615 7.1678705 -2.484178
-1.583756 4.79257 0.35886413
-0.6353564 12.151051 0.7090273
-2.1249127 10.329067 1.0404239
0.9665446 6.4211597 0.484321
2.3271022 -4.6429567 1.5540018
-1.186832 8.592583 0.82460046
0.9671589 8.01272 0.20179883
0.46286678 4.128701 0.8327421
1.7045753 2.6974092 -0.14280528
0.9725815 2.4510293 0.60998106
-0.41341138 5.5827665 1.456254
-0.069056824 4.3112 1.5328434
-1.1830945 8.922472 1.5858374
2.2212834 -0.8309244 1.1458302
1.745383 -0.4316579 0.062347807
0.74444187 9.055727 1.3080776
-2.2677546 -3.9064226 0.4480635
-0.36837858 3.5179496 -0.41219217
-0.61750996 7.4180174 -0.3362406
-1.415232 7.6098576 -3.8688178
-2.3748074 -4.1987295 1.4583495
-0.36495715 3.8311725 0.20944709
2.1201725 -3.5264978 1.1469634
-2.261341 -2.0546722 1.195885
0.0010625734 6.938735 -0.4391629
-0.5041423 6.2320356 1.446137
0.24804828 13.014845 -0.39066082
1.0809522 7.614794 0.5953411
1.7185738 -0.29270667 1.0389876
0.72417635 9.505477 1.2994308
0.55986 12.972454 0.60771656
-0.7928957 7.589422 -4.227728
-1.5626707 -0.60336864 1.4973602
0.29894614 9.831093 1.5519652
1.8691227 2.6865215 0.19423735
0.9401146 9.250576 0.73530877
-0.62859464 8.26598 -3.96767
-0.98467076 4.246458 1.2967591
-0.5628232 3.5104113 -0.06781918
1.6527085 4.6658134 0.7071574
0.442908 8.332682 -2.4507794
-0.9330951 4.393406 1.6875994
-1.0561373 1.637243 -0.10032174
0.5181204 5.0831175 -0.5450586
-1.3430979 2.9404135 0.38904023
-0.27985147 9.486166 1.5384243
1.1048412 4.0876675 -0.116810545
-0.5328146 6.2674236 0.73444736
-2.1940293 1.0904534 0.7164601
-2.510427 7.454136 -1.1025348
-1.5336764 1.4444377 0.5676124
-0.11390187 13.032682 -0.5901669
-1.6276999 6.838175 0.52369094
-0.01552137 8.270031 -2.7196436
-0.7315717 3.9215484 -0.17906752
-0.89574623 2.937572 0.37051153
-1.3711002 5.928232 0.24495551
-1.2364197 3.1849499 1.033853
-1.7767553 5.3303843 0.8397763
1.4123521 2.5428104 0.5988884
-0.58460486 7.7698727 0.50959647
1.4563541 8.203178 0.70835984
2.5747252 7.8008356 0.5859506
-1.9012358 0.1821788 0.3574425
0.7683662 8.676182 -0.17770714
2.410067 -3.8196554 0.9959247
-2.0670447 1.6939166 1.1173084
1.0811393 0.5606085 -0.14066947
0.049225934 11.727865 0.67350745
0.7928953 4.9570217 1.179183
0.18142205 6.274131 -0.2089786
-1.513406 6.620103 -0.07759303
-1.5192583 4.1113853 1.3234191
0.78155243 7.7784967 0.4291594
0.7899318 5.8473997 0.6102128
-0.4287238 7.8353415 -3.257791
-2.3534174 -0.347111 0.68145275
0.3462035 4.2255 1.6982155
-1.1337698 3.917297 -0.13096547
0.3376702 7.588763 -2.956857
0.18122706 12.853384 0.10199569
0.25169465 11.382338 0.39518964
1.4123287 6.7065325 1.0144076
2.0686116 8.2128525 0.5013646
-1.6680276 6.0911713 0.7709677
1.9851811 -0.6893773 1.4255593
-1.3036449 7.0191917 -2.7641253
-1.6889896 6.1489916 0.36298567
-0.80607986 5.2025766 0.54081714
0.1535112 7.318204 -3.3297138
1.1568816 4.5853186 0.74216104
-0.19671613 12.487236 1.2149925
1.522486 1.0746658 -0.22883874
-1.0373232 8.299902 -2.733203
0.44330245 3.007361 -0.10022576
-0.82433325 5.244361 0.9195499
0.50516355 1.7648163 1.0712152
2.207501 7.6303253 -0.36644238
2.0247817 10.145508 0.96171534
-1.9194403 2.8729315 -0.075297534
1.2197769 6.374425 0.042355716
-1.5673249 7.231455 0.45390755
-2.9037428 7.1508303 0.2139685
-1.4514577 8.606001 1.2456553
1.3688419 -0.63461375 1.3329914
-0.6793374 10.359381 1.1187539
0.8008816 5.8804665 -0.3621223
1.8102541 3.4680076 0.29576737
-1.9861155 4.236598 0.64070046
1.6882117 3.7855759 0.006280056
-1.8578539 1.6944971 0.7405585
0.6519822 2.4558778 0.9305434
1.6600542 1.6141965 0.45843437
0.43088984 4.8935957 1.7121806
-0.09881243 7.792571 -0.038962744
-0.96503186 1.2845092 0.05733498
0.3428858 3.6295142 -0.5967399
0.24677116 11.849133 -0.05002608
1.4912372 7.803483 0.5627121
-0.5002049 13.277485 1.1512386
-1.9141579 0.09978698 0.78311384
0.36085576 2.1317964 0.8806411
0.59227645 6.2295027 0.43060488
-0.46201402 11.757652 -0.51948726
-0.46296173 4.3189573 -0.289635
-1.6178286 2.0872989 0.7436569
0.04617507 4.505293 -0.63901424
-1.6423211 2.67938 1.1540458
0.5053934 5.8208265 0.26791328
1.2422137 7.753671 0.17056385
0.80037427 7.16768 0.9067682
-0.20300707 8.716972 1.6137052
0.61345625 7.5065393 -0.27682322
-0.17835441 12.39184 -0.7753478
-2.3273282 -0.7263614 0.56357014
-0.5759541 5.138896 1.1544197
-0.08698006 6.7057514 -3.4461393
-0.8950014 6.9572783 -3.9761548
0.79579175 1.4070959 0.30770433
0.19808161 6.6430616 1.3577662
-2.6842992 7.089122 -0.67359
-2.1467943 0.037033528 1.1937633
0.05194494 2.9649382 -0.26110417
-0.6247022 4.1854315 1.261616
0.76112854 1.041292 1.0731342
2.1390285 -4.3042717 0.97987556
1.9595454 -2.6797915 0.90825915
0.23886855 3.1398773 1.05877
1.0708604 3.350997 -0.53929627
-0.18603176 8.4301605 -0.23224077
-0.9377148 2.3372374 0.8266971
-2.2416515 1.4807489 0.65723586
0.3472944 3.4167295 -0.18778387
-0.52205145 11.108833 0.96553826
-2.1399813 -2.0014915 0.83316183
0.8413441 0.4383512 0.17520219
0.18395203 8.203043 -3.1280303
-0.7252805 7.0089483 -0.31912148
-1.370928 7.0549107 -0.15263829
0.9360771 2.3378968 -0.050255768
0.3904822 8.547108 0.99651325
-1.0780306 7.5703163 1.1905727
-1.9230313 -0.043140754 -0.03222415
-1.239291 5.4602118 1.4601531
-0.21660584 9.211105 -0.10870935
1.7704821 -0.4820854 0.68461454
-0.44310015 8.965929 0.9533459
-1.4022577 5.755538 1.2979088
1.5369103 -0.70226836 0.9994533
2.0864906 -0.3638904 1.2813547
-0.51001096 6.7476187 -0.12285821
-2.1825643 8.975952 0.6142174
0.94123983 2.0781732 0.47079602
-2.0235424 10.069851 0.6924926
-1.242825 6.280919 0.13221166
0.046496257 12.579081 -0.15451196
-0.092242375 8.385527 0.5142888
0.095400274 3.2368226 0.020484056
1.0911195 10.408781 0.83545244
2.0072455 7.116786 -0.5822364
1.2788482 1.6130309 1.2277801
1.2258658 -0.370026 1.0941284
-1.1885569 6.4270153 -0.19528836
-1.3824222 3.8956594 0.7866998
1.2703848 -0.76916885 0.6645106
-2.1637754 2.2557545 0.27303118
-1.786268 0.5198264 0.27544332
-0.52054715 7.0636606 1.4275372
-0.8607385 6.149889 1.6567593
-1.462929 7.912737 -3.5523276
1.9614823 -1.7079449 0.6906229
-2.2830272 -1.2098718 0.9079248
1.589752 7.8746376 0.9468391
-0.4498492 5.3288107 0.25465393
0.34695435 5.41782 -0.5313587
0.9981245 1.6960382 0.51857543
-0.28306568 3.5125728 0.80782294
0.21933605 6.690156 -0.052327245
1.54122 2.355898 -0.32783216
0.5388726 8.273876 -0.24135065
0.33554512 6.751561 0.9990797
