0.3622843 7.451787 -2.3742223
0.5361515 5.02157 0.5372582
-1.5676093 10.789415 0.84459925
-0.7044884 2.9274907 -0.3284328
0.8217602 6.333865 1.2322899
-0.9499227 9.341721 0.645465
1.0952091 6.0693445 0.7381053
0.54694927 7.6445303 -3.9537206
-2.1788402 9.95606 1.1876974
1.6324353 2.0985055 0.5317694
-0.43630305 7.8554077 -3.763526
-1.575968 10.530214 0.5630796
2.15872 -0.43704897 0.9443164
0.27265406 3.917194 0.4196226
-2.1655889 -4.066825 1.588363
1.0850868 9.649357 1.4913576
0.40868187 5.691677 -0.56790555
0.8578936 7.6547174 1.6463032
1.1185553 4.4981728 0.048960336
-1.0323741 5.0495977 -0.488917
-0.67650986 8.050531 -3.9847455
-1.5862963 7.52728 -2.8651643
0.18937047 9.201698 -0.1606672
-1.5169826 9.992653 1.4195647
-0.84384143 6.8893642 1.6381141
1.4428978 5.442539 0.056546
0.54643023 4.8213162 -0.28948754
-1.2348337 6.767293 0.08839382
2.093069 0.3614483 0.8221085
0.1937783 4.4329576 0.7070122
-1.3314822 1.6189919 1.3560245
-1.2815166 4.420495 1.5069559
2.2439156 -3.9893398 1.3970275
-1.2527773 4.277169 0.32606483
1.2331669 2.7656193 0.8040625
-0.36340594 8.545811 -3.3317943
-0.73517895 7.6467075 1.247642
1.3279216 5.8542147 1.0551745
0.728317 5.561823 -0.06009237
-0.6882795 3.8327193 0.20345157
-1.2044158 10.948515 0.9058229
-0.48542053 7.8631353 1.4204867
1.4656448 4.351782 0.8902875
-0.90604126 5.4537344 1.2832274
-0.70454633 2.8029046 0.7021018
-0.62054515 13.077679 0.61763
1.3171628 8.504398 1.2918327
-2.4361997 9.979832 0.5602498
-0.76806235 10.064646 0.43403023
0.7903743 2.9621668 -0.5187163
0.8643643 3.975354 1.4531832
-2.2762566 1.9543781 0.8799597
-0.6429442 4.715143 1.7436078
-0.59157974 7.2213745 1.7927492
-2.1570268 1.3006895 0.2809193
-0.73001635 6.408226 0.96823573
-0.46956974 4.613611 0.011099337
0.4033841 10.989775 0.5856324
-0.34259284 13.29406 0.64792407
2.2394786 8.904198 0.16330472
-0.5717472 5.0115604 -0.63033104
-1.3626289 9.624006 1.5026174
1.0774734 7.3363914 0.90654635
1.9695067 0.728927 1.0515094
-2.3645735 8.6497135 0.61692715
-0.19621661 9.142426 0.75832886
0.6761538 9.764212 1.5982425
-1.8394964 1.0516927 0.4508223
1.5961921 2.444769 0.87731636
1.2910213 2.1195025 0.71739614
0.6286818 2.632309 -0.060773164
1.49788 7.402912 -1.9083874
-1.4004152 4.6106234 0.9010631
-1.2451297 0.18916309 1.1745186
0.85861945 2.0667787 0.8771085
-2.091339 0.4841128 0.015758883
-0.23815867 5.7015805 -0.31238645
0.344913 7.21986 -3.0065498
-1.4038157 8.284889 -0.13034952
-1.9102451 1.9423292 0.6073186
0.70508015 1.7351425 0.34654278
2.5104256 8.301722 0.72807276
1.2156539 2.0460138 -0.029708428
1.5715401 1.8973544 -0.27432984
-0.5620489 8.08317 -2.4030466
-0.33551848 8.92206 1.2762742
0.4856494 10.752842 1.2184196
2.4233913 -4.6161127 0.25571775
-0.6676856 2.5680768 0.39212763
1.083992 -0.71870905 0.92271376
-0.8097367 8.114065 0.43052587
-0.65163124 11.690054 0.3230661
0.9911649 3.4283175 0.1519166
0.94488657 3.72613 -0.61146736
-0.89779484 8.126791 -3.70404
1.3051202 1.0062284 0.47566015
0.03322044 10.82509 1.2240663
0.456582 4.2474413 0.46688655
1.4370494 9.446825 0.55005515
-2.0795245 0.81015015 1.2829294
-1.2396405 2.3381715 0.52560186
-0.58475304 9.201029 0.16758034
-2.300148 -4.5859213 -0.054066647
-2.1348011 -4.5969257 1.6887448
-1.6513267 0.06871329 1.0947545
-0.8577237 4.666773 -0.62106985
-0.96791065 8.845367 -0.2056889
1.0802256 5.607997 0.86454713
1.0644469 6.2985086 1.498013
0.8321011 5.961116 0.049635164
-2.4849095 -4.594843 -0.4606849
-1.6927116 9.3533325 1.3118513
-2.436574 10.050365 0.91693753
-1.3883362 3.5127144 0.8259443
-0.20641387 7.0375147 -0.10668619
-0.3882255 7.568737 1.7590122
-1.9126418 7.2699904 -1.8440084
0.31420285 7.8611097 -3.52565
0.26482317 8.060064 -3.1579843
-1.4898171 9.605898 1.091151
0.5456697 6.535509 0.35645255
-0.7169333 4.0151596 1.6028683
2.4115257 -4.262313 -0.008881977
1.1585829 8.283634 0.029254155
0.01675698 8.053572 -0.31013632
-0.3866372 5.0542393 1.7918978
-1.2607408 1.4851451 -0.15683189
-2.1417124 -3.1389565 0.9544595
-1.7427361 0.91992843 0.84272206
-0.610126 5.576358 1.0520864
-1.4677277 0.7875231 -0.12092019
0.79957116 6.487031 1.6565747
1.4132621 8.175311 0.33311483
-0.016590085 8.986315 1.5743048
1.4729681 0.13767937 0.23947243
1.9365418 0.19477499 0.451148
0.66192746 7.1361217 0.38318804
-1.8280709 3.4089854 -0.16008756
-0.9452243 9.179218 0.2307302
0.6657375 7.465783 0.6574038
0.8036231 8.29665 -0.20766228
0.43568715 9.452496 1.616612
0.5264877 4.7612867 0.8780556
1.5848539 0.34533042 0.52016485
2.1711006 -3.2958481 0.75314367
0.44586712 8.347021 1.657398
-1.0786881 9.312784 1.6377802
-1.1103886 4.5932255 0.2100564
1.4773453 4.034933 -0.25916398
0.77515036 0.8206819 -0.0014482812
1.8862996 9.627609 0.63164985
-0.9689224 7.7527475 -3.8732657
0.30280694 8.7882595 1.2781701
-0.2066033 4.2955127 0.70920074
-0.18790978 10.683218 0.9111719
-0.44998652 12.624926 -0.16224582
-1.3133156 3.3135142 -0.35571122
0.030069727 7.287223 -2.2932425
-1.7914112 9.455185 0.9033808
0.6782918 8.83847 0.98380244
2.3975677 -4.6076736 -0.23513901
-0.6639949 13.486837 -0.13394536
-1.3605807 2.6761127 -0.34227598
-1.4551866 7.8867254 0.5508101
-0.3137135 9.911669 0.0014914257
1.0227857 5.981862 0.3502552
1.1212546 4.740059 -0.43098354
-1.0800383 7.252488 -0.29605287
0.26854455 4.5186243 1.375798
-0.5183995 13.630901 0.4441812
-2.63309 8.885824 1.099114
-0.2412377 7.7073526 0.66595334
-1.1405959 0.29509088 0.7198833
0.08172925 9.368967 0.20201579
-1.9643424 -0.19022048 0.8831457
-1.5250101 4.2970057 -0.3496006
3.042675 -4.6007886 -0.5414094
-1.4038451 4.981451 0.9071897
2.537871 -4.6300344 1.1204431
-2.1987405 -2.3373914 0.9172027
-0.55767477 12.907219 1.2434788
2.6849065 -4.6173444 0.6742147
-0.767584 5.0909357 1.7354999
-0.4996292 12.154213 -0.6132558
0.44554728 2.2596 1.1971817
-0.7101822 7.8976917 0.7804184
-1.4070394 7.6231594 -3.1680079
0.8134718 8.94483 1.6466678
-0.66774154 5.981477 0.38729775
-0.9028764 5.471464 1.6708846
1.5387464 8.273012 1.0733225
-1.4531877 5.255432 0.15275696
1.031203 7.4441404 1.3050737
1.6870565 -0.88311017 0.5939989
0.044433914 6.9177923 -2.4843383
-1.1129532 6.9728737 -3.0483232
-2.0983267 9.525917 1.1983714
0.051013336 2.5457149 0.2088272
0.504995 5.164749 0.9367006
1.3724787 3.3769255 -0.011513
1.6857324 4.336584 0.5191642
-1.0768875 4.7639847 1.6158648
-0.08512111 5.1867437 1.3953242
-1.7220004 9.366106 0.1753822
-1.3375003 9.150832 0.3276756
-0.3274268 7.7030644 -0.40942717
0.44082654 4.4442987 1.0086281
2.231605 -4.6344547 0.75205517
-0.3760836 7.876484 -4.1667395
-0.05331812 8.776867 0.92915136
-0.53304154 7.210865 -0.042100117
0.3895021 6.771487 1.6578169
1.0323126 9.992409 0.65547323
-0.61816394 2.8654423 1.0846088
-2.150896 -4.2703686 0.6098337
-1.1860945 7.6204615 0.15307668
2.5003629 -4.2489023 1.2628167
0.122750655 5.807702 -0.27872652
-1.5778565 -0.015697649 0.1606422
-1.260153 7.536176 -2.6877947
-2.3225093 -4.2115793 0.1931735
0.35905588 12.231643 -0.19547854
1.094552 6.9195757 0.8687242
-0.23499203 4.1607466 1.0933788
1.4588506 1.6542492 0.059780456
0.19414067 5.056114 0.29422063
-0.25180262 3.570757 1.2465258
-1.4359149 0.7437495 0.54046726
2.0676336 1.4989457 0.55677855
1.9650586 9.121878 1.1175027
-1.6165855 7.7932653 0.9179089
-0.81585217 10.208647 1.5351738
2.7688408 -4.1723795 0.11735894
0.09529661 9.9692955 0.027931858
-1.5364429 1.1708255 -0.21061313
-0.14506993 5.135089 0.78033495
2.8517313 -4.5596437 -0.8811764
-0.8681307 6.7739563 -3.302884
-0.39743334 10.220863 0.6224643
-0.7126329 7.624097 1.711477
-0.03218001 7.8747835 -3.764038
1.8908558 1.8182716 0.777638
-1.1214652 8.94599 0.92278826
-0.61428 7.741515 -2.7226572
-0.7375972 8.218302 -2.718874
0.63608325 2.5678587 1.3084147
-1.2477585 8.424297 0.24463457
0.4643501 4.140538 1.294678
-0.57921946 11.756386 -0.1037073
0.87902033 0.96934223 0.46882227
1.3167539 -0.8483857 1.2313342
0.035954934 12.721994 -0.5696479
-0.26042968 8.142647 -3.5478911
-0.6208789 10.741518 0.8898486
-0.22329316 12.813204 0.5454991
-1.0418315 8.204206 -2.9493546
0.41807038 7.8602076 -0.27593797
0.8954841 4.6454906 0.3489923
0.7020409 2.0052881 1.2621619
-1.0475345 0.9395415 0.3149816
2.149938 0.73689795 0.7406869
2.458592 7.359313 0.59578025
-2.0391684 3.251367 0.16444626
0.9929989 2.7515779 -0.18973807
-1.4955022 10.13217 0.6589067
1.6168811 -1.639746 0.89021695
0.42549002 7.676733 0.9918078
-0.8816998 10.898697 1.1879969
-0.29326737 3.1934738 1.0077773
-1.2923892 -0.380637 0.6672884
1.3332868 6.6445065 0.61452234
0.5412715 7.2516184 -3.855997
1.6030922 9.641538 0.90166545
0.23788327 13.427565 -0.27435952
1.3124447 5.200781 1.151658
-1.3709087 10.447647 0.9108921
-2.5366955 8.042494 0.7278789
-1.7800488 4.898591 0.7071767
-0.95373464 6.91265 1.2548099
1.0301814 7.2290964 -2.5221984
-0.08784686 2.9746647 0.062112026
-0.18341908 4.702183 0.71067405
1.0940864 8.41534 0.5387792
-0.1394687 7.0345993 -3.4975295
-1.744333 -1.8318927 1.063034
-0.57278836 12.890116 0.2885809
-1.0746737 1.4503615 1.0599232
-0.44139558 7.031636 -2.9615507
-0.8438064 4.99648 1.3461213
1.2093866 0.38698664 1.2571151
1.8829771 10.113533 0.31371522
2.4650135 -3.9222293 0.96912503
1.3703015 3.6834493 0.2602623
-0.918049 5.8883514 0.045990933
1.2746801 1.4146903 0.4158402
1.2492414 -0.33141312 0.53903866
-0.33284593 5.8236265 1.1037998
1.4436226 5.930414 0.6409489
1.8737817 8.919622 0.3131829
-1.5257368 -0.12164388 1.4262857
0.639989 2.0683846 0.5620614
0.34302562 4.7911224 -0.689896
-0.6773365 6.6288533 0.6117165
-1.8365583 0.5718703 1.4650884
1.6588285 -1.2573545 0.762092
0.6978384 7.309456 1.1761162
-0.8577193 7.8389378 0.10384405
2.937717 -4.579235 0.28058487
-1.1939526 9.903837 0.47431082
-1.8491855 2.203711 0.29441237
-0.2120564 10.516003 1.3587987
0.53782547 1.9482476 -0.18648912
-1.3806462 5.4108896 0.76661634
-0.33659878 7.0943327 0.3135988
0.4290818 1.444421 0.35309416
0.5658014 10.576562 0.8487047
-1.3001845 1.7580926 0.93060017
0.8860029 2.0665355 -0.39317995
-0.85624564 6.586315 -0.029675942
2.7273855 -4.364168 -0.34011817
0.07751775 3.9192467 1.4228146
-0.39433324 6.9349174 0.6806747
0.06998497 12.1681385 -0.002911212
0.53939664 1.5415325 -0.014593018
-0.48162308 6.381151 -0.22128782
-1.6434274 1.4032328 0.17462918
0.5806145 12.895687 0.2285721
0.35637438 4.967534 1.3360274
1.0958872 0.9575249 -0.26422137
0.64535904 10.342764 0.27358598
-0.20013177 13.671925 0.68997467
-1.6100279 2.3069599 1.1607931
-1.4735396 2.0930867 0.40465474
0.7265202 9.36294 0.32167047
-1.1954596 6.187152 0.9979025
-0.10516492 7.314952 -3.102292
-2.41599 7.363968 -1.099067
0.3487684 5.469633 1.2509325
-1.2410588 0.6724703 0.15099856
-0.47047442 7.277006 -4.1588526
-0.5180119 6.783983 0.23819825
0.90078795 4.2199736 -0.5604319
-0.17176735 7.7258606 1.1907115
1.1012373 8.702393 -0.026823694
0.8001932 6.2382784 -0.24116865
0.95882106 4.464116 1.5042813
-1.3377894 4.2541995 0.68494785
0.7765658 3.1092138 0.46316826
0.00742726 5.825327 0.5270667
0.068463385 4.2182245 -0.30035523
0.3192109 6.269886 0.81876016
0.55302966 3.0096889 1.2905824
-1.2061808 3.3422976 1.4495306
-1.3584449 3.644661 -0.05759667
1.1929373 7.8305416 0.9160255
-0.016624257 3.6499152 0.4203874
-0.045366593 8.3365345 -2.569642
0.21902362 7.6395473 1.7124081
0.2765181 5.526933 -0.0061178305
0.6342583 7.7156935 1.2922065
0.26014262 13.554342 0.13774988
0.55511534 6.832366 -3.2537613
1.8376844 0.057023548 1.4150132
-0.5226809 6.1731634 1.8236866
-1.2309072 5.6038375 1.0660244
-1.6765219 1.5459507 -0.23865646
-1.1747224 9.52022 0.36519766
1.6476351 8.676647 1.0786672
-2.6198134 7.662117 0.59996116
-0.85989684 11.049408 0.7500731
0.6247798 4.6106815 1.3178909
-2.1509323 0.8314687 0.901971
-0.5299575 5.698653 0.0016880145
-1.3464911 5.85639 0.7648369
2.22785 -1.1909435 1.2249557
-0.5670361 2.1489167 0.777312
-0.22749266 6.8465266 1.1016383
-0.81251323 5.225359 0.12900905
0.12006515 8.174896 -3.5159125
-0.78662825 7.4060917 0.29037774
-1.2131863 2.7919116 1.2680836
-0.91234744 7.4828434 -2.50918
-0.7910943 9.582645 0.96060824
-0.063960955 10.284828 1.018352
-1.824105 4.565589 0.881662
-0.44734126 6.9833455 -0.48236644
-0.0006544275 10.412601 0.5799818
-0.17660952 6.884242 -3.1617565
-1.5700538 3.5673862 -0.36950624
-1.6239057 1.9302483 1.1677134
-2.3442864 -0.70402765 0.8310473
-0.99730814 1.0563195 1.0886767
0.14243373 9.350693 0.9039259
-0.41221017 10.923609 0.19080359
0.6117618 7.66912 0.026193071
0.07530397 13.204477 -0.02700929
-2.1279755 3.121591 0.5352845
0.080963396 8.290264 -3.9014993
-1.5825448 7.692054 0.19265285
-1.4195964 5.0352163 -0.32304573
-0.35641766 12.395678 0.47654915
1.2648664 3.423204 0.8695745
-2.0422597 2.5707917 -0.014094591
-0.9363253 4.0626483 0.5140153
1.1861379 5.6538067 0.48502755
-1.1283023 9.932182 0.8615917
-1.145935 8.217442 1.2350824
0.09476541 3.4453113 -0.45055157
-0.8813278 13.383982 0.5705407
-1.0431697 5.784086 1.5403926
0.8208544 1.6247294 -0.26970154
-0.035054814 9.113596 1.1913309
-1.1240422 4.7319818 1.1957698
-1.7701521 7.52485 0.6647032
1.168653 8.246168 0.93580115
-1.3003938 5.952672 1.3882661
-1.0056839 4.72801 -0.24639167
0.5906799 8.123156 1.3526397
0.20542896 13.152094 0.36110264
-0.45391494 5.0286665 0.003058024
-1.1718595 9.780464 1.2046452
-1.3199582 6.5742483 0.42899293
0.7900367 9.735361 0.079572
1.515604 3.1009884 -0.347381
-1.3465185 8.27182 0.894923
0.35066664 10.614725 0.44683963
0.5451653 1.1001544 0.24404448
-1.5761831 1.2746747 1.371496
2.2768435 8.417105 1.0233626
-0.08493582 9.566853 -0.08539493
1.030391 7.188607 0.5418215
-0.062263895 7.4925346 1.5384161
2.050539 -0.4264754 0.51360035
2.2593637 -1.3764621 0.8565651
1.3962679 2.8814669 -0.028078668
-2.559141 9.641758 0.72569
-1.4465396 10.113638 0.29148704
-0.922547 7.2900734 1.5440412
-0.81861234 3.8559122 1.2174945
-2.24827 0.48773268 0.3662367
-0.004198809 12.440147 0.6761339
-0.00046160707 9.7517185 0.34542313
-1.3403327 7.881031 -2.763122
-1.5088072 0.46049768 0.93149436
-0.2666184 6.636133 -0.5851158
-0.58347344 2.5526497 -0.1549581
-1.9020958 0.5029022 1.0725187
0.2383314 7.512761 -0.04944718
-0.7605053 10.0887165 0.851411
-1.8081722 1.0809231 1.2087345
-2.4670315 7.5283155 0.24702573
1.0169322 7.0398235 1.2801414
-0.45802683 11.766857 0.6957712
0.63318884 5.2577887 1.6940835
-0.45835185 2.9371767 0.3675405
0.7780117 7.0499506 -3.0449429
-0.33174118 2.6377454 0.11791052
1.9509206 1.4328878 0.22885312
0.3468629 1.8345077 0.18335643
2.3402882 9.089977 0.8887861
-0.12930974 4.926838 -0.6978533
1.6860857 2.1006024 0.9582201
0.06825462 7.391735 -2.6901283
-2.5012636 7.6432295 -0.42452383
-1.3880308 7.4884233 0.45119286
-0.73473763 12.053091 -0.35390133
-0.99933624 10.604069 0.94263065
-1.3221818 -0.26284188 1.1540029
1.9871277 7.1576853 -0.57929325
1.5452862 0.65571094 1.125232
-0.5525961 7.374263 0.6210301
0.9011637 7.1608334 -0.17755291
0.2436544 5.306857 1.6205568
0.5786133 8.08012 0.05938004
-0.014716109 4.775095 1.3994699
-2.0950599 0.88471675 0.15091065
-0.96529484 2.2805119 1.3130149
-1.95876 -0.6522672 0.9416169
-0.9159541 3.5641165 0.8946604
-0.2649132 8.080425 0.8483275
-0.39279932 8.500849 1.105799
-1.763279 10.572264 1.1292088
0.18848687 7.47171 -3.3383698
0.26492718 8.9651985 0.90762603
2.0103207 -2.858356 0.86954165
0.73447764 3.8292603 1.1249988
0.5169184 6.18011 0.11123623
-1.9925413 3.6447587 0.10450271
-2.7081466 7.3532543 -0.45028067
-1.8492725 1.4884162 0.4958825
0.9146799 8.771595 0.67552495
0.880124 5.6026096 1.6073632
1.1148633 0.024182128 1.0768518
-1.1367915 3.2748585 0.06838551
-1.4225538 6.684116 1.2407198
-1.9046633 10.3564 0.46383673
-1.3862813 7.3064117 -3.2536077
-0.012086935 9.538265 1.23558
-0.71222025 12.848742 -0.37561876
-1.5158527 1.0202625 0.18893844
-1.0599642 6.576272 1.0980573
0.07054044 5.689354 1.6468632
0.8978945 7.256145 1.629884
2.1257248 7.230253 -0.18563738
1.3034093 0.058432326 0.59562516
-0.19988467 11.6551895 -0.6674347
-0.054286357 3.6632895 -0.16219637
-0.18816012 6.1455135 0.3586287
0.2629112 7.2179394 0.5540179
1.2357967 5.2778263 0.6878203
-2.0406203 8.5481415 0.75998724
-0.48552182 13.181908 -0.4211747
-1.4523308 5.615841 0.38883844
0.8504738 2.9919276 0.07381201
1.4178176 2.7130022 1.1033015
-0.5160811 7.6344147 -0.028760772
0.48120195 13.222874 -0.014366691
-0.13185096 8.287664 1.6017606
-1.5355203 3.4452682 1.2261698
1.2316108 9.777081 0.19632249
1.9104426 -0.7592857 0.32100543
-0.8776113 7.0019007 0.052081794
-0.5825341 11.390881 0.62265766
-1.9565337 9.376593 0.5792128
-2.5949988 8.987007 0.7584007
0.22753681 7.2569284 -0.42681915
1.0181711 7.8378286 1.3201717
-0.3345434 7.4550066 0.273789
-0.61782676 4.794702 1.0699685
0.99100107 5.2500668 0.014183022
-1.1078258 2.696866 0.51259065
-0.93119323 12.701628 0.33050486
-1.1378572 4.302989 -0.46152014
1.1897157 3.0929508 0.24054375
0.34599793 1.7824175 0.5879222
0.84806526 7.647398 0.9536919
-2.124133 7.1642294 -1.0841668
2.3662858 -3.9794722 0.28317928
-1.7728581 7.1781626 0.8290659
2.7806249 7.392538 0.44727007
-0.7583811 1.3535295 0.8088752
-2.4167395 -4.6092634 1.3228397
1.4311275 6.301298 0.81115973
-1.6201849 -0.43937862 0.923149
-0.5985918 12.67634 0.61641955
0.8528757 2.8275943 1.1132443
-2.7719278 7.217062 -0.04406888
-1.4449894 8.7507515 0.8978771
0.68444216 9.839624 0.47541106
-2.1688495 10.033846 0.37600696
0.07154689 9.391735 1.5974057
-0.77953005 8.354662 1.2013352
-2.4236293 -3.8395753 0.9184885
-1.5354347 6.4180937 0.99024105
1.483125 5.49925 0.8703819
0.02070529 10.870813 0.6031258
-0.91303277 3.6070466 -0.13958243
0.54884744 2.4532785 0.5802599
-1.8991296 -1.2784114 1.4998279
-0.3607062 13.600805 -0.32290974
1.9768355 10.3812895 0.5829462
-1.0840718 5.8643284 0.4030045
1.0607371 0.70949626 1.1384051
0.18217424 4.849573 0.6373968
-1.3948591 7.792877 1.2204187
-2.143042 7.1651897 -0.7143228
1.3366058 0.88097763 0.06982957
-0.17838454 8.799179 0.48914146
-2.2663608 -2.7172084 1.1086397
0.23383558 2.466342 0.98503673
-1.0284181 9.025047 1.2791665
0.07145167 3.9766536 0.046695232
-0.7693331 5.3709497 -0.53921807
-1.7961514 9.75849 1.3347983
-0.12757474 8.135101 1.2347083
-0.8202888 4.3861704 -0.15959498
0.1945149 12.789295 0.5022239
2.7141027 7.3840027 0.00075131876
-2.2158184 0.07288842 0.11597447
0.82575715 8.061777 1.6480489
0.7197272 2.7346268 0.31797326
0.538473 5.449438 0.5721663
-0.5514641 3.2245817 1.2755611
0.37880957 8.352116 -3.6250606
-0.6642473 5.800639 1.3907311
0.6219886 6.5483284 0.7328425
-0.2743073 7.8437166 0.2585224
-1.9844966 4.6828737 0.49765968
2.2455158 8.028484 0.78267264
1.8465681 8.873743 0.7814472
1.2040772 3.7486024 1.2674952
-0.15619808 12.032595 -0.30608642
-1.8408585 9.856911 0.98228085
-0.20382714 5.5752687 0.8216319
1.0882239 1.6728632 0.079803005
-0.31705195 2.9236798 0.7547653
-1.1048304 0.6133611 0.92458236
1.3977087 7.060526 0.60523903
-0.7656315 7.2783318 -3.5275793
0.033864845 7.0216055 -2.8678317
0.88280857 7.821885 -3.3598819
1.8132405 1.4461114 0.8400502
-0.43541414 3.5630555 0.37161678
-0.7117245 9.145601 -0.17795873
0.58791125 7.0721464 1.565804
-0.2278136 12.0770035 0.6998192
0.083204135 12.46785 0.30621576
0.73720825 5.6651316 1.2854972
-2.1659117 -0.99631953 1.4871633
-0.35949907 6.5644207 0.88432634
-0.15667689 8.198616 0.09010708
-0.6095259 7.359829 -2.805638
-0.62807906 8.720196 1.7106857
0.19658196 5.9163027 0.15886213
-0.76497674 9.134003 0.9416485
-1.194809 8.022625 0.17627695
-1.6064975 0.78177094 1.215485
-1.8878183 4.7107553 0.11662628
0.16983053 8.627321 0.5814401
0.4712395 12.871212 -0.11414346
-0.9354415 6.963725 -3.6827035
-0.8202331 5.511922 -0.14450544
-1.9664216 1.4152483 1.258745
-1.7525032 2.975731 0.37535775
-2.6744552 8.335861 0.5449697
1.1336002 4.844631 1.3643122
0.31663507 10.232359 0.7575226
1.703171 10.502821 0.8404888
-2.8567595 7.5043273 0.31334472
-0.9512254 4.858923 0.8667275
0.9604056 10.084785 0.2512033
-1.9752613 -0.8812974 0.63755196
1.2247329 6.7646437 0.2961107
1.050261 10.79895 0.7841803
0.67116714 8.213686 0.4309175
1.2260103 3.4042063 1.2380176
1.5132648 3.135882 1.0363998
0.028453372 8.361464 0.9308419
-0.15605979 7.55731 -4.267434
-2.2714467 2.0637336 0.49545276
-2.7897482 -4.5402203 -0.71757925
-0.8143922 9.039318 1.6355441
-2.20057 -2.2873497 1.3035653
0.9015006 10.07279 1.4801302
-2.0821395 3.9249883 0.42752814
-0.1841442 13.072546 1.2445459
0.95591885 0.3349744 0.88521624
-1.9873073 -3.9269176 0.7969216
1.4162614 4.744653 -0.18376301
-2.5616746 7.5027337 -0.7560833
-2.167019 1.7367873 0.29199713
-1.5257542 3.1998749 0.70335245
0.5391387 4.5446997 1.7035568
-0.85679555 3.4160037 1.3395357
-2.276113 0.032815367 0.91412175
-0.47598755 8.30496 1.4219418
2.1554751 8.715166 0.59588206
0.92640173 5.092655 -0.42635378
-1.3349571 6.7597027 0.8362855
-0.121450365 13.777892 0.31900048
1.1045332 4.2212496 0.8947365
0.01432823 5.601327 -0.65791726
-1.4345145 2.5095515 0.864529
1.0985599 4.968782 0.9216626
1.3705337 10.248623 0.7482325
-0.78178823 5.584283 0.32821786
1.0127802 8.753492 1.4032503
-1.6073585 8.5852375 0.18602854
-0.9453863 8.249344 0.8637451
-0.40800864 2.2515502 0.44774443
-1.1988409 5.5984125 0.046598412
0.40334296 2.8896658 0.5274868
-0.58778167 6.4012895 0.24043542
1.5380797 8.99078 0.5130775
0.19661513 3.54775 1.4636395
0.6357013 9.954377 0.87462187
-0.12986377 7.314766 0.6210083
0.0940732 7.9276648 0.89882517
-2.0458055 -0.5679918 1.5732608
-1.2499981 0.3360623 0.3191047
0.049532697 11.477604 0.042805918
-1.050603 3.6764932 0.577325
1.228028 7.2948275 -2.2318568
0.02407239 7.7771626 -2.637241
0.2107344 9.925276 1.086209
-1.5235329 5.3822937 -0.20305446
1.3979578 9.83885 0.57645524
0.4610709 5.908659 0.99321854
0.6280738 5.263258 1.3411269
-1.13643 10.22299 1.1377041
1.2608654 -0.83871007 0.2571122
-2.1621113 -4.599027 0.91441524
-0.38601005 12.958574 0.90670377
-1.1065656 6.7888165 -0.28325778
0.13669246 5.2239676 -0.67126024
0.62723374 1.0985017 0.7091664
0.0888536 8.430695 -0.19742262
-1.5426996 2.3234224 -0.30782557
1.2613347 4.900585 0.5442462
0.18202804 6.5709705 0.53394496
0.12851173 9.053284 0.52427244
0.4945945 5.852084 -0.17406112
1.9755733 1.910461 0.36076903
-1.4055629 7.1875906 -2.8879037
1.7459986 1.0790265 1.1021936
1.0423571 7.716531 -2.3181872
0.1428034 4.175557 1.1104634
0.41001835 9.156889 0.20886321
0.87849224 -0.7548808 0.58664477
0.52045345 13.313087 0.35940573
2.1514072 -3.6394734 1.1576526
-0.63886106 2.4616446 1.1060104
0.451317 7.011526 1.2089541
1.9381216 7.1354322 -0.9620646
-0.42803347 2.5037808 0.81855226
-1.0276225 2.9063015 0.86850715
0.9251808 4.8490458 -0.08472288
-0.8490938 8.088579 1.5708327
1.0222816 9.587872 0.44253865
-0.13066682 7.884111 1.5857923
0.4280429 6.859145 -2.8149166
0.42300618 12.675882 0.8588177
-0.06707096 8.580824 0.15538052
1.0547483 3.784224 0.5284754
1.1528878 5.7090006 -0.0046637584
-1.853905 0.6201073 0.60961354
-1.0519428 7.3051167 0.5814477
0.5119884 4.4129825 -0.5630889
-0.4730211 10.077447 1.153193
-1.7944689 2.3887548 0.6083193
0.9192134 2.279006 1.278255
1.1383772 0.19344446 0.02593984
2.0236702 7.498454 -0.84896684
-2.283018 0.11487284 0.5259915
-2.1385636 2.7232509 0.6138003
1.1839249 1.4492204 0.826712
-1.1296303 4.065077 1.5759087
0.6768 3.596696 0.07137649
-0.5100304 3.9594297 -0.5925536
-0.041200783 13.658937 -0.09229949
-0.796504 3.2142787 -0.062080137
1.6154506 -0.8850205 1.442421
-2.7884593 7.5580463 -0.12499155
-2.0602107 -1.6740755 1.4279141
-1.6003125 6.188628 -0.08288988
-0.04082997 3.8757906 -0.5338834
1.4182732 8.571043 0.24860236
-1.3047779 4.7270947 0.55604696
2.0321965 -1.1339788 0.63685334
1.0851145 6.6535645 1.3191721
-1.6611984 4.083968 0.45342577
-1.5039928 8.905344 1.3041792
1.6545913 9.765928 0.26703727
-0.54194796 8.045687 1.0985081
0.32869458 9.2126045 1.297173
-0.55974877 8.400728 -3.6976037
0.54953206 3.4078338 1.4641826
-1.1522378 9.803795 0.08887367
2.2536626 -1.7762084 0.7784642
0.41061747 2.5061398 0.22788492
-0.297377 7.5810356 -2.5488844
-0.112439305 4.829324 0.03330721
-1.1792651 10.103706 1.5158368
0.041604444 7.5989103 0.29795253
0.53531873 12.549534 0.46783686
0.5257299 7.212744 0.017404635
1.7103763 3.9836807 0.77023757
-0.6056515 8.089695 -3.4478288
1.2709904 2.2616577 0.30960548
-0.8552848 13.153776 0.94113517
-1.4889777 10.017836 1.0305293
-0.26705992 7.2230453 -2.6822162
-1.323164 2.4635496 1.3423841
-1.0599952 3.256907 0.62620616
-0.26117915 11.436523 0.80768394
1.1966686 6.240638 1.134491
-0.2806431 13.329367 -0.05557884
1.0576482 9.432268 0.031405732
0.8418094 1.685287 1.141577
0.89511234 5.0699854 0.34538835
-1.3289883 2.0399227 1.363997
-0.5695904 3.518424 1.0106758
0.9245206 4.603717 1.0532808
0.75275123 1.6611364 0.76181614
-1.8900375 3.3348732 0.7333875
0.8615215 5.2675915 0.68387413
0.9005655 10.708242 1.1660056
-2.4882796 7.087346 -0.32184997
-2.2216294 2.3569617 0.76244915
-0.8577943 4.474183 0.9871886
-1.0339875 7.7397203 0.5055231
1.0819844 6.82932 -0.08061063
-1.630721 4.679206 -0.21851721
0.6301336 9.379061 -0.0666776
1.3780029 7.5616903 1.167236
1.6191891 0.77068233 0.3629526
-0.52961123 5.4658813 1.8094018
-1.949142 -0.471496 0.5543648
0.059199408 4.5893574 0.3574121
0.8979851 8.516881 0.23160493
0.3237762 8.76429 0.22651784
0.101791814 7.0358133 1.3599803
-0.12128831 6.0227995 -0.017490044
-0.33851415 9.527399 0.23852006
1.4745865 7.455659 0.7779362
0.47903973 2.7523541 0.9159018
0.25260437 5.118807 -0.08160746
-0.38609052 8.854776 0.11971751
-1.5085623 2.8716192 0.03450182
1.0230477 6.5034623 0.89920914
-1.0395931 5.654155 0.6937702
-1.2399937 5.9950085 -0.22117299
0.21474877 7.1986904 1.7077498
0.36417013 9.053627 1.6713592
1.3384571 8.020272 1.2611101
0.7074014 9.576609 0.7911773
-0.23786177 12.429607 -0.40934375
1.4925089 0.2793038 -0.2002545
-1.0473435 8.495705 -0.21094128
0.39742923 9.627176 0.31719935
-0.38090122 8.127623 -3.092495
-1.6542702 9.7764 0.64723384
-0.461653 9.84944 0.8414024
-0.7110777 7.8549232 -0.2882204
0.9714668 9.07592 -0.059741676
-0.2190417 12.696768 0.16593097
-0.23388243 4.89042 1.0761701
-0.16510867 7.2661505 1.2406564
-0.39907628 4.6277027 -0.6785667
-1.9249432 -4.6222277 1.3395534
-1.5461049 9.733639 0.20896044
0.11125043 13.243954 1.084327
-0.7239704 2.8342586 0.070063055
-1.2429696 4.4046297 -0.09567162
-1.148443 10.729685 0.59020865
-0.51991594 6.9780197 -3.3901234
-1.7546861 3.8744035 -0.20801666
-1.7179372 9.0737095 0.7216197
1.3694899 9.911728 0.98531014
-0.7608886 7.0369835 0.43503916
-1.5424447 2.6726928 0.51140416
0.5433432 3.2333217 0.18080312
0.10535142 2.8139758 0.7974882
0.7206335 6.1860914 0.86559594
-0.9273797 4.1436005 0.13473222
-0.96869195 8.9279785 0.55174315
-0.8533044 13.166615 -0.09144119
-1.4534838 1.205415 0.55654866
-1.1176109 5.1819468 -0.097881764
1.6088991 4.6106224 0.16225779
-1.7961271 0.45975912 -0.18041822
0.07112336 7.7149773 -2.25815
1.3140826 6.276533 0.35389954
-0.42891622 4.9268885 1.4322575
0.43233877 1.4347498 0.7167876
0.069629095 3.4136248 1.1012298
-1.0603814 7.6865206 -0.25507855
0.36154744 10.282457 1.1360362
0.03336642 6.792507 -3.8315125
0.21462487 5.5177603 0.363238
0.69741553 10.939809 0.8669021
1.1052043 2.4717383 -0.47260648
1.9328396 -0.19227217 0.27507138
-1.0021882 1.0329633 0.6941916
-1.5946085 3.0654316 -0.33978963
1.6113529 -0.82112056 0.08164033
-2.5816183 8.53315 0.2197319
-0.81297314 12.430508 -0.13398865
-0.93398076 7.9210386 1.175343
0.5029522 7.8621445 1.6244664
-1.147429 2.9868002 -0.3005247
-0.5791802 1.8831034 0.5121201
-2.5988955 7.819565 0.066919446
-2.1829987 0.45330995 0.76909626
0.43350315 6.888856 -3.6589317
0.15244162 12.06077 0.7139758
0.80288076 9.335882 1.626317
1.9939322 7.426509 -1.207432
-0.46043974 7.608226 0.96723986
0.49508935 5.6672077 1.63072
-0.8306494 13.49333 0.19709034
0.06774151 7.2004976 0.22160348
-0.95879626 3.0349054 1.3683534
0.14670494 2.6233034 -0.1647093
1.7226648 1.3881569 -0.08940226
-0.4489308 5.3780375 -0.22142243
-1.419137 7.8826475 -0.14282009
-1.6988163 -1.5766494 1.3729076
-0.91495204 7.342064 -3.936038
2.1585336 9.290592 0.22081181
-0.28286433 5.8866844 -0.642105
0.12685293 7.653632 -3.0115745
0.67044353 3.9014246 0.42419904
1.2378283 5.271571 0.30411267
2.108159 9.82901 0.95043534
2.4469433 -4.677041 1.5746417
1.9570324 -1.683354 1.0271525
0.025750488 6.802783 1.6634061
0.5375184 8.718761 1.5888677
1.4463528 2.6572108 -0.38803667
2.2664747 -2.4315224 1.1332073
-1.7613122 1.8121996 0.22635694
-1.1256309 7.873065 -3.1768131
-1.2899544 7.2295218 1.4588661
-1.4828329 0.43096972 1.4324212
-0.13495368 12.263201 1.0762925
-0.35370827 7.1884193 -3.7393298
2.0717173 9.6972065 0.28672522
-1.1641457 7.134659 1.0355395
-0.055851333 12.07419 0.3711638
-1.5149 0.34695834 0.026174929
-0.1576964 7.5092297 -3.5183
2.57198 7.4006615 -0.42352265
1.1762484 1.7771068 -0.35202688
-2.2401161 8.238861 0.5232533
-1.4068942 8.808541 0.48615173
0.16115898 2.476849 0.597069
0.5793067 6.0500994 1.3206792
-0.9718362 3.7180595 1.5544899
0.23353624 8.327221 1.3189671
-1.0631704 1.9575095 0.66114557
1.9747386 0.62631893 0.41659993
0.9040985 6.857502 1.6326439
2.4831681 8.701553 0.8547361
-1.3446066 9.233227 1.4223307
0.7636452 10.667875 0.5320816
-1.4099314 7.159733 0.75259066
-0.7842727 8.677164 0.8850405
-1.7308109 3.3701496 0.36630574
-1.2292416 6.9800878 0.43165702
2.6453357 -3.9561357 0.60029876
0.22191349 6.800359 -0.501184
2.2301297 -0.9847168 0.9275906
-2.6232114 -4.135005 0.62984073
-0.3057893 8.5335045 0.7322323
-0.7803371 3.1802797 0.9561366
-2.1060321 -3.4277802 1.2347667
-1.8285441 8.813854 1.0379386
-0.8513515 2.6672943 1.3581929
1.919101 -2.553175 1.1623435
0.25532162 3.6110792 0.078723475
0.7533885 2.5189838 -0.45788062
1.5659387 1.4124455 1.1431842
0.40547013 9.3522 0.59172463
-0.3220989 4.5155926 0.35909963
-1.699822 4.8891163 1.1084079
-1.3105655 1.132103 1.2349136
2.720971 -4.6028585 -0.057992358
-0.2231465 3.2369323 0.44669074
0.28482163 3.8580403 -0.29565388
0.69506097 7.9227686 -3.69
-1.9657216 -0.10349852 1.5356822
0.2534678 8.3192425 0.23494458
-1.1545246 5.0085707 0.27791876
0.35352722 12.348036 0.7152394
-2.6675215 8.771788 0.48723054
0.86136234 1.3456895 0.5557188
1.3492622 0.79785717 0.8559146
0.6674985 10.450542 1.42239
2.032341 -0.111406475 0.72754765
-0.27835083 7.5396757 -2.1895428
-0.51055104 4.130145 0.43516707
1.9184122 2.3310199 0.3601802
-1.8584135 10.192459 1.2632122
0.25627744 6.1782436 0.45638677
0.7283392 5.4749427 -0.45601147
0.8412744 4.8361473 0.6890043
-0.8170662 12.74123 0.97807646
0.76617646 6.7829905 1.0361109
-0.4418186 9.052409 1.6408578
-0.30815527 6.7911496 -2.5940213
-1.0105828 4.4469423 0.65351415
1.416125 -1.2888827 1.0689268
0.027085358 6.5802264 0.93570507
1.247539 3.790473 -0.080378875
-1.2882342 9.605843 0.76269317
-1.1377048 7.069516 -3.4073353
-0.5871528 12.497957 0.1858451
-1.8270867 0.847538 -0.17220566
-0.69154716 8.769609 1.2926688
0.16483447 3.604295 0.76206803
0.41832376 8.124546 1.0222943
-0.06904423 8.274433 -3.210534
-0.26302484 7.333658 -0.47305882
0.41188598 3.5512276 0.41520333
-0.8747253 7.4312916 -0.0525297
1.7423203 9.945105 1.1877072
0.43822956 7.4770765 0.32039493
-0.46158782 12.177311 -0.16044609
-1.4142702 2.8887687 0.8552028
-0.6308304 6.959115 -2.5459828
0.77773297 7.102585 -3.50497
0.7641611 4.7252073 -0.6020572
1.6974053 -0.6076751 1.134166
-1.053244 3.7253642 0.18280907
-1.1610773 5.500825 -0.34024006
-1.0556233 7.3720074 -2.9491158
-0.2693323 3.8960829 0.64734995
-0.42529982 13.718325 0.07673075
0.5140649 8.945038 0.5948256
-1.9417791 -0.09500399 0.415963
0.90510976 5.91346 1.060782
-0.5211637 6.6046515 -3.2632241
0.80105406 -0.33421552 0.52111673
1.3968483 8.997967 0.12722878
-1.3211343 3.9001236 0.3601051
-0.0012694631 12.811113 0.8700942
0.17421857 7.0201845 -3.300397
-0.95939785 13.1078 0.2775066
0.36218172 12.174963 0.2976709
-1.2666347 -0.02669793 0.85264766
0.6402217 5.1876793 -0.16421685
-2.100893 -3.8294148 1.2446973
0.8229016 4.0088053 0.7612622
1.0095978 5.2237816 1.468962
1.30316 10.020393 1.3753698
-1.3499732 2.5026302 0.10688008
-2.0058646 1.5977461 -0.02770593
1.932944 -1.4454894 1.406116
0.6905247 0.36071873 0.5303601
0.20454717 11.974936 -0.45899338
2.3672771 -3.6953888 0.5637187
1.4393747 -0.12062992 -0.11464789
-0.38135958 8.070696 -0.31308198
1.6777463 -0.1428386 0.5996969
-1.1663375 2.2546127 -0.2762298
0.16115159 6.2373943 1.2318478
-1.5479594 5.7534 -0.15141067
-0.94048953 9.485837 -0.060676783
-0.693777 1.8815765 0.14361162
-0.11950021 8.503218 -3.652961
0.74460053 1.2032095 -0.13595772
1.5508416 5.04586 0.13230324
-1.1510117 2.1050901 0.13415003
0.12980184 4.552991 1.7596822
1.3346024 7.56548 -2.1701512
1.7427664 7.489579 -1.5490375
1.7606795 7.2029066 -1.2895439
0.24952424 4.1299 -0.6531663
1.0994062 5.4651127 -0.2791059
-0.73339635 10.823193 0.46663874
1.1336393 3.145687 -0.19125722
-0.70370424 6.5862274 -0.4404422
-0.17860723 7.524925 -3.9184332
-0.5302061 2.2546992 0.07932292
-1.3243415 6.186485 0.5439266
1.6887968 0.6959732 -0.06735194
1.123023 1.9295907 1.2994034
-0.567232 8.344187 1.7644148
-1.1133891 5.156864 1.5672226
-1.0383067 2.554731 0.9868175
-1.5773675 7.3111525 0.06329973
-1.7399764 5.055644 -0.041252077
0.5841638 2.1669245 0.16289082
-1.6856785 8.458534 0.96912116
1.1685805 3.0323644 1.1092486
2.0737162 -3.6778853 0.7988229
-0.52127826 9.533131 -0.10649726
0.39355028 9.59103 1.141989
1.9159722 0.37285542 1.1911881
2.1231222 8.773117 1.0710847
-1.6651775 6.5426607 0.20551099
-0.22339818 11.639847 0.37886763
-0.2408601 6.635043 -3.58562
-2.7605977 7.950302 0.41366124
-0.7731607 1.7341928 0.8604407
-0.14045617 6.6621904 -0.25163218
-0.88686514 4.804825 0.48655856
-0.084816545 13.3839035 -0.4163828
-1.6208766 -0.08664014 0.674585
0.24326575 6.669736 -3.1008234
-0.9168944 9.494627 1.3351378
-0.84049773 2.1658962 0.38441375
-1.1223129 1.1017246 -0.023818225
-0.4311892 7.3450603 -3.2851925
-1.3510787 0.9224806 0.8773395
2.5192404 8.113668 0.39676762
1.6096985 -0.5307193 0.41746774
0.761629 6.020585 1.6457697
-0.26269242 11.531965 -0.2345863
-0.49818215 5.9746847 -0.2861756
-1.8597946 7.9032526 0.55112755
-0.82756025 4.8178425 0.060762603
-1.5316529 6.0294514 1.1221807
1.386121 7.1345825 1.067296
-2.2702413 1.5099663 1.0004673
-0.3224641 6.8605623 -3.9541054
-0.5372619 13.286125 0.25716978
0.67241406 7.2250805 -2.7036047
1.0402145 -0.54174507 0.31266934
1.1922264 5.560848 1.2808344
0.7790221 3.260254 -0.21888566
-1.5154412 8.364967 0.5558716
-2.4694562 8.162922 0.15617123
0.17456022 3.2456102 0.33950984
-1.4992049 9.166887 1.0320458
1.2263494 9.146008 0.72714627
0.4967814 6.5025578 -0.43999937
1.1079705 10.395185 1.3245829
-1.2779355 -0.049635433 0.4276902
-2.347145 -4.594266 0.44717515
-1.0456054 6.5501585 1.5068233
1.2816632 2.437667 -0.08842175
-0.5767257 4.721405 -0.32819533
1.3725495 0.6606091 -0.28543162
0.3034417 11.000431 0.9568375
1.438051 1.5055726 -0.3108726
1.4395595 -0.9459169 0.9012208
2.2435489 -4.338633 0.45541102
1.769208 0.019760873 0.017965537
0.61729455 4.552828 0.026285361
0.2170147 7.7509356 -4.1409655
-0.5540024 8.075178 0.0693683
0.20478752 8.085878 1.696635
-0.49836767 3.8804097 1.0027778
-0.9494505 2.4696834 0.14914596
1.7159929 0.88758445 0.71429074
0.54543674 7.4367437 1.588532
1.6687667 4.8145413 0.46297804
1.319514 2.2187128 1.1256578
-0.13816333 7.404935 -0.104833156
-0.6988616 7.5810027 -3.1301744
-2.7165642 -4.231127 0.25353354
1.6678026 2.8615656 0.80224836
-1.9416481 -4.2285547 1.4203076
0.22357798 7.3831606 -4.1356373
-1.2819757 -0.65983856 0.9356036
-0.8092588 3.4291196 0.30858105
-1.5860844 -0.3625946 0.36394066
0.6479162 6.707494 1.3680418
-1.9114954 5.0903873 0.33965677
-0.3395816 7.993064 -2.712873
0.87211215 2.3739672 0.2115719
-1.2589678 4.3289433 1.0572863
-0.2549069 5.027487 -0.33296755
-0.74854416 12.0569 0.052233852
1.5202553 3.2902951 0.3503669
-1.3932347 7.4942217 -0.18912786
-0.8546134 1.2314054 0.36045069
-1.1248236 5.3937607 0.38786083
-0.99251664 6.850644 0.75553393
2.6384096 7.6685915 0.2881607
-0.3138047 5.352783 -0.6385716
-0.03485909 9.464319 0.5604117
-0.30736053 7.103442 -2.3168654
-0.41847736 12.78553 -0.5829866
-1.3984222 1.754978 0.09517967
-1.1210597 2.857243 0.08849498
-0.59427583 5.6952677 -0.5680284
-1.6142519 7.6165485 -2.4725418
1.9801075 -2.2167747 1.2770832
-1.62465 4.464306 1.2137613
-2.099225 2.0753012 0.090010814
-0.6684209 12.451363 -0.49813956
-0.70104647 5.8345604 1.7531573
-0.7551897 9.569567 0.30360845
-0.66206914 5.740999 0.71176195
-0.06486226 6.787345 0.18084705
-1.1361386 9.362366 1.0549635
-1.7395363 2.6720219 -0.25870228
1.9244156 -1.9479301 0.74962914
1.7201891 -2.0164032 1.0618553
-0.91320944 7.9045496 -2.5689692
0.83794606 3.9533749 -0.2296737
-0.94587386 6.2665424 0.342161
0.55702317 6.9553394 -0.31636202
-0.73628706 9.85865 0.02663403
-0.60950935 9.846844 1.5620084
0.5018369 3.9444752 0.059667442
-0.8293432 6.200227 -0.09065555
0.9277885 5.3161163 1.0752168
0.69528294 10.246649 0.61620426
0.76255095 6.8641415 0.12798174
0.78939545 0.03634859 0.3734877
0.3822404 8.041285 -3.9180434
1.0141625 3.5621567 -0.24344262
-1.056217 8.096994 -0.21485001
0.47413462 2.3404045 -0.27621204
-0.6499529 11.21191 0.33440793
-1.5853825 5.3069563 1.1312218
-0.7035697 8.313929 -0.26187634
0.3254041 9.620287 -0.048531756
-0.16973493 12.669748 1.2421161
-2.304973 -0.29705268 0.22775474
-0.10775915 4.3806896 0.011277897
0.4459014 8.381386 -3.168003
1.3918657 -0.12999414 0.8873131
1.7869496 0.40560806 0.1398696
-0.078248695 3.8115587 1.0393767
2.017292 1.0589063 0.8789276
2.0827756 1.0822446 0.49472505
1.4068239 10.138826 0.3099773
-0.3647499 5.7271366 0.39141244
-0.5780121 8.762316 -0.25407147
-0.662604 3.7441854 0.6396669
-0.55049413 3.267795 -0.42403662
-1.3578804 6.334593 1.3892355
2.376058 7.8030787 0.15687132
-0.9116255 12.51226 0.63504875
-0.65287364 13.498163 0.8374418
-0.22473672 4.24162 -0.60731554
0.4243284 2.7418146 -0.42277724
1.1087253 2.431346 0.90760577
1.2983062 5.1122437 -0.20188147
3.079095 -4.5720882 -0.12709078
-0.57726216 3.6609988 1.4411645
-1.1729417 3.6276283 1.1407654
1.1630406 4.1303988 1.3030465
-0.85261 9.740717 0.6217152
0.33252475 6.8642726 0.19971296
0.57855296 8.576035 0.51472664
-1.3565042 3.7483444 1.4707189
-0.8006649 2.086897 1.0385654
0.37763035 7.272966 0.90666354
0.93183184 9.28516 1.0347984
0.62639654 5.552931 0.9350891
-0.99469393 2.6071107 -0.2294431
-0.6650816 9.453096 1.6457548
1.4012518 4.773284 1.0711303
0.120443396 6.418784 -0.5744691
1.5737958 9.270878 1.2465689
0.8652719 3.5973983 1.3997803
-0.6259812 7.3141117 -2.3583288
-2.1816158 -0.6837672 0.15537693
-2.2645104 -1.3875713 1.262739
-0.32699913 6.498001 1.724262
0.81586564 6.639454 -0.23624976
1.7634315 3.0818396 0.033651512
-1.9434807 3.850762 0.79307127
1.0077608 8.274443 1.347249
-1.472838 10.377001 1.3393209
-2.0301714 -2.992128 1.2732177
2.2529893 -1.6020079 1.1994698
-2.9802165 -4.57726 -0.3740651
0.6593908 4.2028885 1.6095479
-1.860672 2.9221754 0.79888964
1.9367173 2.2329006 0.71995866
-0.1423668 9.633633 0.86996174
0.47837198 6.4456224 1.116513
0.8160583 8.472116 1.6446421
-1.9693506 4.355124 0.28012747
-1.1057394 8.621275 1.1646729
0.60964626 3.957828 -0.6085577
1.4841155 4.3802986 -0.10771691
-0.9198165 6.074996 0.72713315
0.5643809 9.019081 -0.15157205
-0.4710499 3.2148743 0.100291416
1.7330778 0.52796364 0.78440356
1.3457332 1.85532 0.37828845
-0.027867451 7.999662 -4.1421947
-0.5979013 4.578517 0.6559862
0.30326957 10.038512 0.4473077
1.6456845 4.1599207 0.13117927
0.9737817 7.522643 -0.13078755
1.1023765 1.3386965 -0.32659113
0.1969815 11.788517 0.33440375
0.19788882 8.437805 -2.8738375
-2.9117603 -4.782029 1.6130226
-1.7569089 10.293173 0.8862041
0.50632864 10.00115 0.10412197
2.1851087 9.438949 0.9658706
2.0448682 0.023226624 1.0980256
1.2271049 1.3197997 -0.009702646
2.5287042 8.622157 0.47550642
-1.7496083 8.131466 0.8104434
-0.18183406 11.24711 0.39493072
-0.2225565 9.771769 1.523087
-1.2619436 8.000142 1.541671
-0.12357667 5.9660044 1.3586507
-2.3596997 9.599134 0.39512655
1.0932617 2.8247192 0.48175645
1.2965922 4.10284 0.20582785
0.94544584 1.3258027 1.0645351
0.50785494 7.753421 -3.1598382
0.18117976 4.823781 1.0103245
-0.20982644 3.272433 -0.25861597
0.6235618 8.144615 -3.4053903
-0.13807914 3.4362798 0.11308718
-0.117064685 13.4252615 0.32306457
-1.2956896 4.6597376 -0.47181016
1.9448345 -1.0487051 1.4369409
-0.8285415 9.923235 1.2230184
0.17648105 8.090612 -2.4317389
-2.0133715 -4.236457 1.036205
-0.71235526 6.4950895 1.7290912
-1.8626777 -0.83813655 1.2532601
1.3972782 3.5780852 -0.39719266
-1.600348 -1.3753012 1.0618798
2.2205524 -2.579358 0.796533
-2.3740368 9.18401 1.1774478
0.8396294 1.9217014 0.009871922
0.042981446 7.065936 0.93932295
1.5490336 5.0563545 0.8236233
-2.5311863 9.249316 0.45143655
-0.48172128 4.204816 0.071884796
2.6038218 -4.269312 0.8695482
0.9936441 4.234216 0.45515925
0.013042277 7.4911985 0.95413375
-1.731462 3.1480126 1.099463
1.8709569 2.623735 0.59198916
1.4591391 3.9973984 1.0752172
0.79994535 4.245014 1.1366177
-0.02218394 4.509573 1.0631595
-0.21663536 7.9934225 -2.3068004
1.1680703 7.6006575 -2.6320324
0.731686 4.424528 0.7026173
-2.3311405 -0.37802 0.9937216
-2.2256165 0.842397 0.5093076
-0.11694325 5.3981786 0.46689236
-0.49148196 6.8352203 1.8073697
2.267612 7.735731 0.5289
2.5581336 -4.6003323 -0.62823904
-0.7337691 5.084553 -0.25933066
-0.48057508 9.484765 0.6587657
-1.8037465 -0.71040094 0.2559744
-0.25400478 4.6159754 1.7648009
-2.753582 8.583401 0.87030375
1.3757188 0.50089645 0.16129698
-2.6320062 -4.612273 0.09634304
-2.5376844 -4.2271633 1.0187129
0.100707285 7.210393 -3.708776
-1.6520294 3.709818 0.20475513
-1.0029294 7.715557 1.5285313
-0.68651885 12.35619 0.87762165
-1.4785933 4.0664635 0.028346773
1.5276084 1.2241945 0.19401905
0.35394967 7.1023865 -2.5244575
-2.6406007 9.3034115 0.9152411
0.02302013 3.2074428 0.720379
-2.4133577 7.159231 0.060680494
0.0007252784 13.161762 0.6982847
-0.49704206 10.525906 0.26030463
1.8301227 1.7818968 0.012587644
1.1912014 6.10707 -0.033087343
-1.332909 4.827956 -0.019227881
-1.5579534 7.422965 1.1385922
-1.5674143 9.430548 0.52019966
0.5459534 5.3066797 0.2118752
-0.7622138 8.408087 -3.322929
0.65056854 8.507418 1.2389777
0.7186192 3.3926244 -0.5978122
-0.8709048 8.512186 0.46484756
0.3834743 13.029959 0.9218613
1.3000188 7.4421062 0.33946696
-0.31754577 5.299285 1.1031477
0.26833254 7.4168186 1.2970173
-0.19236816 4.9883165 0.40970948
-1.4177271 5.0682573 1.3773463
-0.9675058 5.842747 1.0914309
0.87958276 0.68631256 0.74359554
1.9394518 8.41415 0.8662454
0.27418816 4.5330057 -0.28705722
0.8632535 3.2476456 1.2301004
1.5783215 2.050322 0.14162612
-1.137589 5.178422 1.1090882
0.16921806 12.315886 -0.5545852
0.024402175 7.978326 0.47665924
1.8498056 3.0496492 0.4616361
-1.2071259 2.1763077 0.97692144
0.394436 3.1781135 -0.5507804
-0.016633116 5.5689487 1.2170697
-0.18813795 11.827698 0.032463238
2.3173943 7.3057804 -0.84899175
1.0934207 5.9303427 1.4078946
0.25245246 2.7384906 1.2569199
-0.57571 8.797289 0.5117568
-0.39987162 10.198355 1.4743499
-1.3154855 9.188183 0.69798046
-0.81785333 7.738611 -3.5047722
-0.051864043 8.60033 1.2904096
-1.3359576 10.742552 1.2067411
-1.136219 5.1076365 0.66962427
1.0954909 8.947092 1.0542178
-0.71966636 10.453733 0.6574507
-0.53629124 4.8760686 0.34283817
1.141382 2.6490316 0.18877986
-1.6711669 4.168288 0.9087684
-0.17076007 6.460246 1.3372326
-0.6050315 8.456128 -2.98672
-1.553261 -0.70437694 0.5954751
1.5417707 5.5837374 0.43064076
0.44795707 7.8103156 -2.4386392
1.5276906 0.24271283 1.3139637
1.0810235 2.601838 1.2459481
0.17113152 8.622852 1.6716151
2.2094264 8.133574 0.22477901
-1.788363 4.3184032 -0.095588006
-1.4435813 4.724416 1.3903145
-1.6904564 5.65851 0.8625469
0.5587049 7.571785 -3.5022259
1.7954702 3.6151986 0.6365682
0.8090695 2.7544231 0.72236836
-0.88495433 8.337776 0.10293946
0.11029598 8.559383 -3.3108091
0.6484599 3.1157355 0.8864422
0.41488922 3.2747698 0.68871045
-2.092722 2.8402333 0.25318557
-1.7516322 8.698772 0.60419714
-0.071229786 6.265439 0.7129271
1.4836214 1.2280891 0.7652087
2.3163118 9.525705 0.6116943
-2.0374265 8.762602 0.3293082
2.1416125 -0.7549125 0.680667
-0.4893449 13.011929 -0.055355377
0.326412 12.618181 -0.35601193
-0.41840976 4.496727 0.98265576
1.1558309 9.225872 1.4283414
-0.9016721 6.21542 1.2795031
0.18449709 7.0382557 -0.13000986
-2.058331 7.4945774 -1.6533809
-0.43810165 12.076094 0.9670486
-0.23948267 7.1538944 1.6446362
1.138486 7.1375656 0.16446882
-0.39618263 7.211973 0.9673286
1.9250121 -1.8484709 1.3521049
-0.49160093 9.640331 1.2330861
1.3583432 4.0753226 0.59574205
-0.9458089 4.0339155 0.89945626
1.1105499 9.18956 0.34561604
-0.15255801 12.014624 -0.69134605
1.7159505 3.8847194 0.3627739
-2.251383 8.475754 0.2135388
-0.74521184 4.6015215 1.3738585
-0.36496687 2.916809 -0.18482077
-1.8189074 5.4736414 0.48184353
-0.5099952 12.514788 1.1816683
0.47802305 4.6322117 0.42244714
0.022447195 8.974833 0.11348502
0.40252045 12.528343 0.06474239
-0.72692555 6.1685543 -0.51205564
-1.0714153 6.451996 0.7109465
1.3086205 10.5908985 1.0488626
0.18841355 7.951644 0.044954784
-0.16957405 5.3802032 1.7035384
0.3210283 8.217386 0.6476214
0.47585267 3.8202987 1.5563636
-0.88233745 10.471901 0.30454278
-2.2341452 7.278846 -0.38831216
-0.5989444 6.743742 -3.6669583
2.15378 -4.3466206 1.4277887
-1.7441909 5.830677 0.13497663
0.1581665 12.842714 1.1771479
-1.5497699 2.1651697 0.032427438
1.2281649 4.8579187 0.16924798
-2.5763803 7.2910013 0.4733749
2.4207187 9.056459 0.5124986
-1.1475451 3.6561685 -0.45528987
-0.011107011 6.8984704 0.58273804
-1.2462671 0.71197927 1.2624757
1.2780423 0.6041275 0.58386815
-0.18041584 11.148283 -0.01573293
-0.59295285 3.267003 0.6339707
0.8890097 6.418929 0.16154668
0.04585235 5.944871 0.94177973
0.5720844 1.3695464 1.0574818
-0.78152 7.1373796 0.82881296
0.20109093 10.4957695 1.380166
1.4318295 5.9007006 0.20259175
-1.5816121 8.113056 0.21084976
-0.6057441 9.158974 0.5586958
-2.2330546 -0.20373243 1.310246
2.4175906 7.6151047 -0.16189843
0.5184916 4.1969337 -0.24317601
1.487411 1.690469 0.7339337
1.8234503 -0.9411104 1.0274527
-0.18366519 8.54759 -2.9540815
2.2309508 -2.1836364 0.7899715
0.20931917 13.600542 0.50956273
1.7248538 10.025534 0.7047428
0.027398102 6.659486 -2.799109
-0.09994547 5.2510223 0.065289795
-1.9325275 -0.33085805 0.056974478
-0.1369217 4.6281986 -0.32991868
1.111841 10.426729 0.430915
0.22237632 7.562187 -3.753685
-1.3253698 7.532921 0.8237277
-0.57349944 10.1942005 0.11563392
-0.2514327 9.16972 0.34342358
-0.41603285 8.087103 0.49525946
-0.115813315 6.546032 -3.2120614
2.1199021 -2.8358212 1.2044098
-0.9426546 6.6737547 0.34394413
-0.9539759 3.970305 -0.5099151
1.061922 10.124912 1.0465889
1.3946424 8.904831 1.3169746
0.0892576 13.540325 0.8520984
-0.9772447 7.7306585 -2.8858304
0.5566459 8.514215 0.079576805
1.1640067 8.815645 0.410804
0.89080894 5.5238295 0.31665173
0.8877052 6.7940044 0.52302575
1.0932178 0.30361497 0.44949156
-0.376721 9.32585 1.0418355
-1.8934491 2.2955923 -0.17102012
-2.129045 9.720831 0.746896
-1.9146376 -1.5380051 0.8623265
2.0492105 9.186729 0.6134192
-0.28751245 6.238676 1.0625428
-0.47478622 6.066555 0.08646037
1.698592 0.14773011 0.91056955
-0.6847612 1.5558224 0.45939407
0.09777439 7.635376 -0.39583224
-1.5683508 7.2657423 -2.5582356
0.14303625 4.930585 -0.37144852
-2.09027 3.5478497 0.47510028
1.4319204 -0.117991686 1.285322
0.7374122 8.358707 0.8135862
-1.7895591 5.4462557 0.08049847
-0.02514235 8.074858 -2.8877153
-0.6084329 6.5736485 1.3367629
1.5078254 1.8377333 1.0802319
-1.9011362 2.5796814 0.91679394
-2.1932082 1.1638134 1.1623552
-1.9526088 2.164668 0.9708611
-1.3343773 7.5838556 1.5059924
1.1406803 1.8378377 0.9122845
-1.7548459 -0.889822 1.6179521
0.9896209 9.752909 1.1195939
-1.0486989 1.7530074 0.33046728
-2.6223397 -4.593089 0.85771537
-0.6343612 6.0413933 1.0216501
-0.24257633 2.5891376 0.50433105
-0.34375125 4.5381727 1.3525774
-0.7680495 8.778086 0.13858785
2.1340842 -4.387892 0.957978
-1.4491855 1.3312554 0.9058193
1.0984015 -0.14812899 0.2110664
-0.4321454 7.7535763 -3.362886
1.5786507 -1.2342235 1.3795843
2.2518315 -1.9919281 1.1384863
-1.6557744 3.701046 0.61589754
1.3775604 10.652761 0.6630298
-0.71428365 7.9828806 -3.0726786
-0.6492499 9.216345 1.2966664
-2.0580664 7.210886 -1.4492204
0.113168985 5.2022357 1.0715654
-0.51884615 4.973178 0.72645867
1.0387294 8.026194 0.59455585
-1.9691741 9.661839 0.31261632
-2.6281433 -4.344208 -0.18386048
-0.7443845 6.777416 -2.898656
