-0.97765934 4.6947956 1.7081859
0.0022502975 5.1503277 1.4559886
-1.8965473 9.503822 0.16482157
-1.3928809 9.076506 0.32812673
-0.22648433 7.618513 -0.3307895
0.42568922 4.5216026 1.0266101
2.172576 -4.576337 0.9333403
-1.5391505 7.911194 -3.785325
0.045707323 8.899607 0.97419155
-0.47585905 7.1764183 0.078568086
0.5252856 6.749112 1.6476645
1.1644404 10.003307 0.63604045
-0.61682737 2.831358 1.1070929
-2.1449008 -4.2651997 0.65904295
-1.1512957 7.6057835 0.20210868
2.4984827 -4.230171 1.2510111
0.12365006 5.805935 -0.21479678
-1.561712 -0.043240905 0.10266943
-2.7640095 7.1007357 -2.673544
-2.302238 -4.259284 0.18464193
0.43015033 12.2174835 -0.30903387
1.154959 6.944891 0.87068665
-0.23019463 4.1657867 1.1268218
1.4190481 1.7425311 0.085148215
0.27032197 5.1187744 0.36509442
-0.33505446 3.4887176 1.2698088
-1.4829538 0.50717425 0.45065737
2.093667 1.5314889 0.63593423
2.0045352 9.079512 1.1688647
-1.5892856 7.8792105 0.9029814
-0.6893821 10.246481 1.4558883
2.854095 -4.280344 0.05102033
0.15755183 9.976519 0.022198323
-1.5387568 0.936978 -0.21994984
-0.16994521 5.107641 0.8016747
2.8685007 -4.547344 -0.8906367
-1.8892875 6.5261335 -3.0095277
-0.33927923 10.272451 0.5045444
-0.63389283 7.54263 1.7998703
-1.4345121 7.919633 -3.355679
1.9345913 1.7998333 0.8800634
-1.222754 9.005119 0.9394567
-2.2902293 7.456897 -2.4563618
-2.6722589 7.777027 -2.6401343
0.67395806 2.58365 1.3455205
-1.1336315 8.409704 0.14812624
0.4959343 4.2096224 1.3415592
-0.49824536 11.70912 -0.21917716
0.94724095 1.0297556 0.44293106
1.4398804 -1.1135635 1.2323723
0.02236037 12.674084 -0.6449977
-1.7513714 8.031935 -3.1850252
-0.49850923 10.728928 0.8253038
-0.16529432 12.788279 0.48629236
-2.7925186 7.726411 -3.0317678
0.5670394 7.8361197 -0.23509726
0.9098387 4.640485 0.4036566
0.9490212 1.9052699 1.3130744
-0.93553245 0.88051414 0.38928568
2.1695776 0.652943 0.7280297
2.4184427 7.433819 0.63104045
-2.0266194 3.120593 0.2091743
1.1179368 2.8023076 -0.05237797
-1.4007784 10.081806 0.5638958
1.6232898 -1.7941895 0.966362
0.38593256 7.6400023 1.0321696
-0.771284 10.924564 1.1180487
-0.3394053 3.1639247 1.0419254
-1.2744026 -0.42492056 0.6131753
1.3993614 6.674882 0.62565887
-0.7692653 7.5135336 -3.2257457
1.6860241 9.57958 0.9194796
0.34498253 13.362154 -0.31854022
1.41307 5.2371025 1.1299641
-1.2933517 10.492941 0.8145739
-3.0016108 8.230675 0.64869165
-1.8255885 4.9682817 0.682847
-0.93333876 7.0216036 1.254103
0.555187 7.3164444 -2.2569137
-0.11806671 2.9811325 0.29174054
-0.19373652 4.710347 0.74556136
1.1700034 8.365343 0.44489598
-1.3898252 6.9523935 -3.0820022
-1.8098905 -2.0027528 0.9723532
-0.548929 12.832987 0.34073585
-1.1635396 1.3934469 1.104322
-1.9840798 6.9164934 -2.7869682
-0.74974644 4.994543 1.464298
1.2227111 0.42740554 1.2409999
1.9158592 10.048729 0.27603394
2.6239672 -3.9095063 0.64250755
1.4265041 3.726242 0.37011096
-0.9438025 5.799222 0.16090477
1.2832019 1.3885694 0.48847693
1.4378734 -0.43653375 0.7560806
-0.17716667 5.7898693 1.1350992
1.5696008 5.944339 0.63955534
1.8543231 8.8628025 0.32187313
-1.5199416 -0.14289278 1.4147828
0.6250199 2.2098107 0.59048295
0.29305583 4.785182 -0.59900045
-0.60910547 6.7049193 0.7232156
-1.6947098 0.36689556 1.5017796
1.7409556 -1.4687252 0.7596241
0.66528416 7.4073133 1.2873619
-0.78812814 7.86675 0.1579982
2.9982243 -4.5949965 0.23558637
-1.0651174 9.87693 0.43350542
-1.677043 2.083187 0.31431258
-0.06806114 10.559898 1.3098655
0.5634577 1.9282134 -0.05526726
-1.4106677 5.5687323 0.7388246
-0.3167833 7.0405445 0.43698025
0.42227876 1.4775801 0.4144007
0.76552427 10.546139 0.9138328
-1.3738229 1.7014194 0.89676476
0.8498472 2.065432 -0.23559558
-0.791644 6.5132084 0.06251006
2.758172 -4.3797064 -0.40433294
0.13133451 4.0050144 1.5327668
-0.33439738 6.9785614 0.8089241
0.058550783 12.135801 -0.17464453
0.59356344 1.538008 0.0638413
-0.47060257 6.3002872 -0.13976696
-1.6473551 1.1907434 0.18616918
0.6296867 13.031038 0.34548318
0.43685663 5.026037 1.409512
1.1924536 0.9833578 -0.21218774
0.7115843 10.367159 0.2739218
-0.037992477 13.630112 0.6612538
-1.7428436 2.3575187 0.9482595
-1.4231799 1.7992699 0.4890991
0.8128935 9.364849 0.30244392
-1.1550255 6.2466173 1.0426311
-1.6682589 7.2356644 -2.8834147
-3.5470552 7.088542 -1.1313999
0.38815212 5.4640903 1.341924
-1.1251781 0.57201326 0.2892968
-1.5580206 7.1990814 -3.8371248
-0.5326011 6.752796 0.3164124
0.87053216 4.1937037 -0.48274654
-0.22291571 7.804059 1.2694924
1.162607 8.653624 0.011952432
0.8941556 6.3505697 -0.24154684
1.0532503 4.541215 1.535732
-1.2432821 4.36296 0.7258438
0.80411494 3.214158 0.5614326
0.11069697 5.727929 0.5009383
0.009523595 4.1918716 -0.23348862
0.36947024 6.2955103 0.7809051
0.5990108 3.0907025 1.3788495
-1.2232146 3.3294158 1.4492617
-1.2947731 3.4463816 -0.057309777
1.1734025 7.831913 0.9216002
-0.051215008 3.6973963 0.51003087
-2.203802 8.096207 -2.1848717
0.22398528 7.7362547 1.7760181
0.4453426 5.5957813 -0.108590856
0.5894165 7.805175 1.288373
0.26435685 13.560547 0.07191707
-0.8247541 7.074088 -2.6987433
1.8256965 -0.1087895 1.4227219
-0.49315488 6.1279373 1.8504574
-1.1425586 5.4735374 1.0791705
-1.6190605 1.3191893 -0.24272445
-1.2859704 9.5372925 0.32922912
1.5521138 8.56179 1.1145415
-3.2694793 7.9866962 0.48346716
-0.77327335 11.069866 0.67065
0.66698384 4.6332684 1.3529916
-2.076138 0.6656157 0.93574274
-0.557497 5.6338987 0.16834131
-1.2434614 5.8566675 0.9351076
2.3127294 -1.497237 0.9537127
-0.6524272 1.9400542 0.812132
-0.20925912 6.8649426 1.2652571
-0.73288774 5.227847 0.18395555
-1.705661 8.190805 -2.865006
-0.7386336 7.476035 0.40895742
-1.2638724 2.6372256 1.3269577
-2.4884262 7.09754 -2.320797
-0.6195792 9.578766 0.9044366
0.16403097 10.390392 1.0060453
-1.7698765 4.597557 0.8720962
-0.24513039 7.1913166 -0.37273842
0.07051876 10.452332 0.54762745
-1.5933235 6.8673706 -2.717749
-1.4932745 3.264357 -0.34289658
-1.7048004 1.9681306 1.045265
-2.329403 -0.6928351 0.94703853
-1.0756962 1.0157361 1.1785214
0.23191679 9.298656 0.9099934
-0.3725006 10.914206 0.10262641
0.68657076 7.703933 0.11722039
0.11855757 13.18172 -0.077841625
-2.132924 2.911252 0.50461435
-1.472913 8.384211 -3.2854033
-1.493191 7.799181 0.046835452
-1.3318064 4.884778 -0.33494824
-0.42701858 12.447044 0.4427284
1.2342958 3.4897642 0.97255224
-1.9187734 2.4945493 -0.13929021
-1.0012238 3.8495245 0.53433955
1.2468231 5.700591 0.55487025
-0.9965923 9.865242 0.8192624
-1.1230614 8.36702 1.1723318
0.089311406 3.3694944 -0.3414715
-0.7134875 13.48023 0.45030874
-0.9978093 5.751889 1.6179607
0.86550844 1.6552367 -0.18828982
0.034951538 9.138014 1.3297966
-1.0325875 4.6726627 1.3084393
-1.7391076 7.5481777 0.67303133
1.1312244 8.277855 0.90524983
-1.1802404 6.1114006 1.4565771
-0.97600293 4.6456947 -0.12258628
0.60298574 8.181488 1.3068407
0.24510607 13.160254 0.26870775
-0.4439643 4.9690495 0.07240458
-1.0895288 9.875523 1.1812501
-1.2861154 6.467538 0.45952296
0.8465208 9.751518 0.059804693
1.5525203 3.1890306 -0.27854264
-1.3596187 8.23266 0.8674279
0.40204442 10.656345 0.3705914
0.57455695 1.117029 0.24775669
-1.4756527 1.2170634 1.307956
2.2938476 8.5257 1.1451778
-0.020889588 9.631046 -0.10176881
1.0750985 7.1862106 0.5492252
-0.069338664 7.5865917 1.6022756
2.096171 -0.41407377 0.4788072
2.1431255 -1.7132812 0.6840364
1.4787884 2.9828224 0.06884168
-2.6075296 9.732639 0.5432162
-1.3407302 9.971172 0.1627194
-0.9190382 7.3447714 1.5445244
-0.8491062 3.8437319 1.1956241
-2.2003875 0.3489747 0.31852293
0.08180244 12.46586 0.4785241
0.000713659 9.751425 0.3924899
-3.0027375 7.376807 -2.8273544
-1.5114708 0.18371686 0.8514347
-0.2644016 6.7525616 -0.46234
-0.49563533 2.4034772 -0.08207123
-1.9969573 0.28896016 1.1127877
0.29771525 7.5572405 0.022418603
-0.64342976 10.088667 0.7818321
-1.7282317 0.9279678 1.186986
-3.147654 7.956874 0.0973747
1.0838025 6.9949827 1.2813025
-0.45220244 11.8234215 0.67559016
0.70804524 5.2846994 1.7124479
-0.45661193 2.7997546 0.4238376
-0.773224 7.37735 -2.4676938
-0.36347157 2.41988 0.2724206
2.0246463 1.485786 0.29744452
0.35766804 1.8793237 0.27865165
2.3202147 8.928445 1.018023
-0.14434603 4.8851156 -0.6095419
1.7242322 2.1372452 1.0425682
-1.5519693 7.400426 -2.2080803
-3.5295796 7.629633 -0.4876362
-1.5412428 7.6365385 0.3659407
-0.63526225 12.009104 -0.43708283
-0.9142815 10.653643 0.84174573
-1.375334 -0.42457128 1.1432972
1.9696808 7.4918747 -0.4557528
1.6190777 0.5156443 1.1440396
-0.48500502 7.3665495 0.7058053
1.0857029 7.1659784 -0.10100013
0.30622786 5.3455515 1.723408
0.6575935 8.122953 0.1480506
0.0076394826 4.768156 1.4929605
-2.0817227 0.678064 0.12303713
-1.0794322 2.2929025 1.319689
-2.2071652 -1.0368097 0.8583232
-1.0448358 3.657223 0.8932522
-0.2746408 8.056465 0.7784661
-0.37232935 8.554121 1.0572464
-1.6343527 10.613457 1.0333605
-1.370703 7.5394583 -2.855919
0.45279145 8.959698 0.95172775
2.0902867 -3.885345 0.7763674
0.7067163 3.8463173 1.2039683
0.48718554 6.40534 0.06057798
-1.9704788 3.5267444 0.148871
-3.5428214 7.2689753 -0.422601
-1.808387 1.1917937 0.5316863
0.9564769 8.591915 0.6667658
0.9474182 5.601405 1.5958235
1.1266448 0.0407933 1.0918868
-1.1176665 3.0404968 0.004090016
-1.3619959 6.8681536 1.1289079
-1.8912444 10.486397 0.40082765
-2.548098 6.8380566 -3.3954678
0.14869326 9.586254 1.2614961
-0.65952384 12.759253 -0.40000355
-1.5629683 0.8210969 0.18200943
-0.97082436 6.6281757 1.1698623
0.13473654 5.7413034 1.7969162
0.92586005 7.2478447 1.6270552
2.0340786 7.2237215 -0.11944753
1.2768893 -0.09729594 0.6012044
-0.075490415 11.643183 -0.7666441
-0.09226741 3.5874104 -0.07072301
-0.20173454 6.118433 0.44546825
0.30188882 7.202914 0.65110695
1.2540305 5.2773085 0.7409338
-1.9307775 8.623495 0.72657454
-0.47215837 13.120445 -0.45170557
-1.4278164 5.518016 0.36265832
0.881629 3.0107908 0.17029005
1.5343897 2.823112 1.1109486
-0.4764617 7.628723 0.06369816
0.557209 13.210183 -0.03997822
-0.15122655 8.3891735 1.6260588
-1.567518 3.3809414 1.2089283
1.2505133 9.803879 0.14784908
1.9598615 -0.7623496 0.34065634
-0.83452487 6.935134 0.08793943
-0.51221037 11.407978 0.55712533
-2.0269313 9.438824 0.46696526
-2.7747045 8.96084 0.7256218
0.48700798 7.436907 -0.31522834
0.9751173 7.815075 1.31527
-0.31588268 7.438835 0.3674758
-0.7100409 4.8256273 1.112448
1.0123568 5.2586126 0.07048477
-1.1027298 2.6100879 0.5750692
-0.8712884 12.588718 0.3534772
-1.0712605 4.1148014 -0.45967126
1.2268887 3.1180615 0.31933552
0.38506377 1.8314676 0.66168237
0.81404924 7.6137705 0.9718188
-3.3079925 6.9605017 -1.3952341
2.263349 -3.9385915 0.38661206
-1.711905 7.170141 0.70782375
2.7437963 7.4636154 0.45805168
-0.83561504 1.2565207 0.9231138
-2.403037 -4.599082 1.3614464
1.5106857 6.3111286 0.84019494
-1.6417677 -0.6788169 0.89196324
-0.24376976 12.496397 0.77711153
0.8943937 2.867968 1.1986513
-3.2477322 7.2132607 -0.114980906
-1.5492582 8.896643 0.6672417
0.75632095 9.834553 0.4662701
-2.1308813 10.253048 0.2711045
0.11527111 9.417641 1.6242368
-0.73993623 8.436884 1.1993407
-2.5416503 -3.9380045 0.7475554
-1.5098271 6.4399614 1.0067801
1.5633504 5.517008 0.81650424
0.086766645 10.876856 0.5407218
-0.89351 3.4632769 -0.12203537
0.45303273 2.6145496 0.61814106
-1.8014648 -1.4488683 1.4881101
-0.27250463 13.514475 -0.43442369
2.0389743 10.277912 0.5495634
-1.082778 5.7574205 0.5518434
1.0134776 0.75182223 1.1514921
0.19386673 4.859044 0.74525344
-1.4145012 7.9233723 1.2290974
-3.216374 7.06388 -0.99351156
1.548852 0.90906096 0.17738402
-0.11531399 8.8150425 0.40063417
-2.252635 -2.9196067 1.1016529
0.32285708 2.4480329 1.1867521
-0.95979536 9.169006 1.2511077
0.017126188 3.9579372 0.10181442
-0.6880208 5.301282 -0.4618311
-1.8069603 9.854891 1.198885
-0.11473073 8.205091 1.2366686
-0.8249328 4.284746 -0.17431638
0.24705294 12.867203 0.5079329
2.6792412 7.308853 0.12272136
-2.2046957 -0.015002256 0.10543062
0.87409294 8.084143 1.6351748
0.6352538 2.8842921 0.3930238
0.46681452 5.520664 0.5969188
-0.61582625 3.1907463 1.2933774
-1.596936 8.523542 -2.9775267
-0.614851 5.881665 1.4695055
0.64252603 6.541111 0.77218044
-0.23678643 7.867216 0.34052515
-1.9456475 4.608073 0.4884001
2.2774458 7.9018927 0.76027954
1.8118906 8.767374 0.78346765
1.3292878 3.796618 1.3196161
-0.1515131 11.906162 -0.4039526
-1.7360047 9.939205 0.8469349
-0.11695486 5.540781 0.8196907
1.0761306 1.5571432 0.12899825
-0.35780752 2.8418336 0.82267845
-1.1516831 0.636327 1.0641215
1.4590981 7.0681553 0.61892116
-2.0047975 7.1132402 -3.4458666
-1.3968182 7.082711 -2.4329634
0.13283864 7.9137135 -3.026823
1.8800874 1.3474483 0.8799268
-0.51932144 3.5160427 0.5167768
-0.5122925 9.096472 -0.21394357
0.57773733 7.1105967 1.6594002
-0.16361174 12.137451 0.54272497
0.13727176 12.353107 0.14016944
0.74988246 5.736059 1.3087037
-2.0264053 -1.0969322 1.5208554
-0.24305597 6.620573 0.9559561
-0.039664447 8.211275 0.13118309
-2.1944304 7.1208773 -2.5619411
-0.5418688 8.788704 1.6937165
0.11523233 5.9432516 0.13626328
-0.82267284 9.179083 0.89097154
-1.1453688 8.019482 0.16878077
-1.6581142 0.504045 1.0593228
-1.8127909 4.5877295 0.094257325
0.1713346 8.67852 0.6276418
0.6311201 12.839914 -0.012750891
-1.9584935 6.656522 -3.4139614
-0.817026 5.471156 -0.09215741
-1.8849137 1.2900796 1.2866399
-1.7447424 2.8081503 0.3695647
-2.9753351 8.640926 0.5379298
1.2396162 4.8771496 1.3796487
0.47082078 10.374046 0.653111
1.849684 10.490034 0.78893447
-3.4756007 7.7190022 0.26814038
-1.0254743 4.9128475 0.838295
1.0169241 10.103237 0.23190865
-2.0276918 -1.3214858 0.73456824
1.3119016 6.7120523 0.29955333
1.1709149 10.809896 0.7539115
0.73961127 8.211063 0.5607563
1.315366 3.4170246 1.3090298
1.5813346 3.228922 1.0681899
-0.025121965 8.379393 0.8932518
-1.3330109 7.559888 -3.830452
-2.1928492 1.759577 0.42314684
-2.805244 -4.545824 -0.7152382
-0.74463916 9.101671 1.6184132
-2.1549006 -2.5048466 1.3076923
1.0346665 10.113932 1.4559815
-2.0646071 3.834474 0.43051714
-0.36874068 12.798101 1.1904132
0.9753686 0.40045738 0.8804147
-1.9715676 -3.9065661 0.8429842
1.3981812 4.7178373 -0.17768547
-3.6064587 7.3989115 -0.83344865
-2.0977054 1.3950729 0.22943094
-1.4981303 3.1368232 0.71867347
0.6378776 4.5842915 1.7455304
-0.88064593 3.412157 1.3256176
-2.2598248 -0.020257007 0.9192792
-0.43246466 8.529732 1.4097126
2.1513538 8.666756 0.63449717
0.9046236 5.087743 -0.38505465
-1.2548013 6.618064 0.79925203
-0.08425276 13.742065 0.25983924
1.1486528 4.2536736 0.9204111
0.046251737 5.6538267 -0.5830443
-1.5816622 2.7265396 0.7247025
1.1893463 4.953829 0.98724246
1.5425763 10.22765 0.67926264
-0.7344235 5.535248 0.5004177
1.0548234 8.785248 1.4216466
-1.532577 8.511398 0.07789266
-0.916612 8.320417 0.84042954
-0.4380173 2.1574945 0.5666851
-1.2362614 5.540165 -0.0005020322
0.38783634 3.0169282 0.6849421
-0.60295916 6.354188 0.44510287
1.5392804 8.9747715 0.56564236
0.23156667 3.6172624 1.5372164
0.5650325 10.020969 0.8258678
-0.06497061 7.2920446 0.7247622
0.047537424 7.902957 0.9525075
-1.8847568 -0.73149073 1.5886655
-1.1375484 0.22892657 0.5501754
0.111387104 11.444151 -0.02652968
-0.96188164 3.4333887 0.6210456
0.87927306 7.3242245 -2.0054226
-1.713723 7.797921 -2.3185291
0.30840832 9.949133 1.1355338
-1.4600637 5.268874 -0.22450745
1.4878602 9.77346 0.53842175
0.5392009 5.980253 1.0448321
0.7436948 5.351426 1.3339794
-1.006444 10.271769 1.0701985
1.236903 -0.8180741 0.27882552
-2.1634688 -4.5928354 0.92568016
-0.1819565 12.971346 0.8549739
-0.9807509 6.770791 -0.23597279
0.08100559 5.197261 -0.5950408
0.59396577 1.1279049 0.6664475
0.28837365 8.518265 -0.21749267
-1.4658568 2.0718083 -0.29763287
1.3205037 4.91737 0.57947683
0.26079696 6.5589933 0.47020215
0.33662254 9.042925 0.5848806
0.4734069 6.0038633 -0.07022332
2.021051 1.8929944 0.44062984
-2.59859 6.6436434 -3.0484324
1.8127942 1.0622385 1.1544113
0.8893268 7.6467667 -2.0662498
0.13570094 4.233943 1.194494
0.47606325 9.2054405 0.22599569
0.90361774 -0.7425841 0.5814451
0.5295037 13.37859 0.2941749
2.074524 -4.169257 1.0744703
-0.6944455 2.4448104 1.2087657
0.6912203 7.0272675 1.3004158
1.7980266 7.1537275 -1.0009758
-0.48071212 2.3945303 0.91700566
-0.98661363 2.6163096 1.0159969
0.91450167 4.833828 -0.033780433
-0.86255574 8.227005 1.5638392
1.1001079 9.617214 0.4463259
-0.13959384 8.024797 1.6347163
-1.0124803 7.0656796 -2.2917566
0.31719583 12.603132 1.0238857
0.08478643 8.6063595 0.12834793
1.0944989 3.8493648 0.6464044
1.2655411 5.6605396 0.08942424
-1.8298974 0.40119725 0.6635251
-1.0767446 7.3244057 0.5508326
0.45263046 4.402976 -0.5315254
-0.42115858 10.115799 1.1258748
-1.8313539 2.3998394 0.5430472
0.95868254 2.309709 1.3378394
1.1917412 0.18925628 0.05596699
2.0027103 7.5253468 -0.896348
-2.271649 -0.022692382 0.5079135
-2.2048707 2.5013585 0.53621864
1.2655146 1.4986801 0.87740564
-1.1282485 4.0497465 1.574126
0.6366801 3.6505332 0.13516149
-0.4947068 3.796515 -0.5372207
0.052575618 13.598696 -0.22697169
-0.6873977 3.0589433 -0.01996088
1.6704488 -0.9627228 1.4404197
-3.56359 7.4524827 -0.068027675
-2.0043926 -1.8543441 1.420584
-1.5460219 6.151038 -0.06290524
-0.009680941 3.7829547 -0.44488496
1.4941213 8.605526 0.2840699
-1.3996725 4.736064 0.7179264
2.0871515 -1.2868876 0.64221156
1.1189454 6.6063366 1.3209269
-1.6616137 3.963304 0.43244684
-1.4771821 9.097916 1.2358844
1.6736963 9.73827 0.22370154
-0.4907806 8.124861 1.084528
0.4044795 9.269371 1.2737088
-2.1566548 8.192677 -3.517057
0.63447917 3.51617 1.522088
-1.1525173 9.624416 -0.022326026
2.2013574 -2.187108 0.749794
0.44997615 2.5370603 0.23795545
-1.9356167 7.4163475 -2.245429
-0.12020287 4.7514935 0.07935661
-1.0864804 10.187744 1.4667356
0.07066442 7.620433 0.34337294
0.60246825 12.666946 0.3637957
0.6483437 7.2610273 0.07008241
1.7574255 4.0263815 0.84474325
-2.1049938 7.9197073 -3.309163
1.2642138 2.2658005 0.3732162
-0.80187035 13.105148 0.87368256
-1.3590441 10.11517 0.951211
-1.8096669 7.0714493 -2.4275837
-1.4809093 2.314488 1.2601125
-1.0767274 3.050992 0.644343
-0.19667599 11.439133 0.7378464
1.2599506 6.2388897 1.1313062
-0.270252 13.26899 -0.12599877
1.0930748 9.427032 0.0123782195
0.92590475 1.5483081 1.1265142
0.9349654 5.0625877 0.4065343
-1.4207735 1.9698415 1.3179202
-0.6648493 3.4454517 0.95688033
0.97361183 4.630418 1.1126008
0.7611793 1.7682524 0.7781602
-1.903604 3.108914 0.705492
0.8620554 5.3758383 0.65798914
1.0643599 10.732933 1.1282692
-3.1679091 7.162345 -0.50088394
-2.2720008 2.1007633 0.60411286
-0.90590286 4.500557 0.9538468
-1.020695 7.7954493 0.5237539
1.1937788 6.743435 -0.04575804
-1.5464833 4.521658 -0.23433676
0.6903119 9.404259 -0.0758297
1.3299253 7.5925236 1.1956847
1.5428069 0.60249794 0.48551744
-0.48205435 5.4020634 1.8910658
-1.9331584 -0.8437948 0.6407503
0.087216794 4.560054 0.4291883
0.85256755 8.470463 0.257262
0.4058488 8.803558 0.27862597
0.2821595 7.0935307 1.3944662
-0.32561636 5.9785957 0.13747299
-0.34746426 9.576305 0.22862619
1.4919019 7.459299 0.7924961
0.5392425 2.7993412 1.027627
0.32703042 5.1871233 -0.06808679
-0.3355949 8.91585 0.10205504
-1.4540555 2.6964912 0.014024757
1.1057246 6.4830694 0.841226
-0.85155165 5.6429195 0.8592185
-1.2020926 5.9897137 -0.13789758
0.1921246 7.305743 1.7793272
0.4769122 9.155464 1.6600523
1.2685103 8.018595 1.2950258
0.8515353 9.730679 0.8450265
-0.11642127 12.328266 -0.49198133
1.5603018 0.2845146 -0.17250276
-0.91794145 8.508528 -0.22909424
0.44657022 9.6461525 0.28407657
-2.2578192 7.7758846 -2.7113538
-1.7096615 9.788696 0.47514427
-0.27398586 9.923418 0.74218524
-0.56235063 7.867481 -0.24717456
1.0659816 9.040827 -0.031462334
-0.15793738 12.614357 0.114644825
-0.23630983 4.9088 1.1473243
-0.07653482 7.224575 1.4220593
-0.38828534 4.539263 -0.60000086
-1.9300468 -4.624979 1.3345547
-1.5884562 9.725298 0.1149731
-0.062390715 13.1723 1.1373944
-0.6973027 2.6581588 0.115647316
-1.2146752 4.286751 -0.042707406
-1.0907669 10.737488 0.4872381
-1.7647092 6.9093494 -3.140585
-1.6925547 3.6920629 -0.21629152
-1.936322 9.087631 0.6670002
1.5253642 9.917381 0.9513334
-0.74696577 7.0639277 0.45499575
-1.4500978 2.4678664 0.4269408
0.5066366 3.2874627 0.30062407
0.18018001 2.7689552 0.9755517
0.78280044 6.180501 0.74879193
-0.92185056 4.0653048 0.17097798
-0.96980405 8.969591 0.5505456
-0.7843685 13.107668 -0.16964337
-1.3864245 0.93486285 0.54710114
-1.1068885 5.0775747 -0.016085275
1.6178906 4.574031 0.15281205
-1.635494 0.279356 -0.13313231
-1.6845644 7.7324514 -1.9007778
1.3774834 6.3005066 0.44830334
-0.38558298 4.8349867 1.5213251
0.46460378 1.4875505 0.77721214
0.05161591 3.4417672 1.2117872
-0.8984027 7.664468 -0.2068559
0.52862275 10.305649 1.1041133
-1.0592289 6.935631 -3.3728948
0.23857889 5.512065 0.19583449
0.79851234 10.954205 0.8405912
1.1487777 2.5994334 -0.37188333
1.9871202 -0.091794655 0.31674153
-1.0237482 0.9576062 0.77330625
-1.639193 2.877761 -0.2996438
1.65295 -0.8049098 0.08311519
-2.8392472 8.65085 0.16442996
-0.72429466 12.364626 -0.22579879
-0.927246 8.024551 1.2028315
0.53653955 7.913061 1.641219
-0.90152895 2.663981 -0.22147104
-0.55613446 1.7821324 0.44255525
-3.4267993 7.777586 -0.12288654
-2.1815906 0.29187107 0.70631456
-0.8143439 7.120775 -3.099142
0.27220744 12.090418 0.4725148
0.8458545 9.377613 1.6086287
1.7291996 7.477399 -1.2040343
-0.43143702 7.6678734 0.96494544
0.5563761 5.687891 1.6850033
-0.8249408 13.37878 0.104082085
0.040349543 7.208603 0.32482874
-1.0119939 3.0171132 1.373234
0.15905675 2.6250339 -0.028271
1.7960856 1.437669 -0.006832126
-0.42256153 5.3676596 -0.10638608
-1.2453473 7.8713455 -0.21205941
-1.7007947 -1.7417688 1.2475083
-1.9859011 7.2158184 -3.830606
2.1106553 9.217142 0.2193807
-0.25376093 5.9094334 -0.54195964
-1.5693817 7.4157333 -2.5688672
0.6672337 3.9731135 0.480837
1.2548096 5.312587 0.37327838
2.1853352 9.721333 0.92452264
2.9372377 -4.786997 1.6929543
1.7857797 -2.1551304 1.1354151
0.20010877 6.921653 1.7939913
0.5237844 8.748268 1.6530735
1.4415071 2.8173141 -0.3342592
2.2121701 -3.0716462 0.8173051
-1.7913041 1.619076 0.3634085
-2.7068357 7.313959 -3.0938964
-1.2737036 7.245019 1.3958473
-1.3818417 0.2700215 1.2806096
0.16021422 12.234272 0.89135146
-1.5373307 7.1507387 -3.3773048
2.0397139 9.62723 0.2604428
-1.1385279 7.2680035 1.0010846
-0.0008545354 11.952358 0.24391982
-1.313741 0.23877159 0.1818367
-1.5884423 7.5905247 -3.1458554
2.3154082 7.1793394 -0.38408852
1.2081718 1.8144395 -0.28457707
-2.6868434 8.284462 0.4932046
-1.3062401 8.698559 0.41900742
0.19244865 2.4368854 0.79727805
0.6216306 6.113223 1.3903434
-0.99355376 3.6977053 1.5515177
0.25164723 8.367964 1.3798294
-1.0395095 1.825681 0.66334295
1.9773781 0.6624911 0.37007302
0.92359936 6.843196 1.6217458
2.5099773 8.623428 0.8757938
-1.3066404 9.37542 1.3817139
0.82272935 10.668133 0.53397
-1.339859 7.065241 0.74656594
-0.73458886 8.749676 0.8522234
-1.6827421 3.2156973 0.37602395
-1.1612518 6.9206734 0.45412964
2.6201801 -4.027356 0.24492207
0.4167968 6.9532747 -0.3793593
2.2463942 -1.1232965 0.907614
-2.6526399 -4.293908 0.6798005
-0.2706954 8.729904 0.76230407
-0.8675735 3.0761313 0.98408043
-2.076273 -3.574798 1.2087781
-1.7526114 8.898602 1.0168042
-0.8568785 2.6991053 1.3809862
2.1319222 -3.196117 1.1518168
0.19949642 3.6106048 0.17751667
0.7979641 2.4657936 -0.34900337
1.5837655 1.3913884 1.1917393
0.58741534 9.418766 0.62455606
-0.32243592 4.484002 0.3875262
-1.6782901 4.954255 1.0729418
-1.3966162 0.9118526 1.0176108
2.7266922 -4.6195307 -0.13136753
-0.26876646 3.2088761 0.6128937
0.28723115 3.8101454 -0.20101407
-1.0062516 8.171703 -2.6092148
-1.7732267 -0.35615176 1.5715921
0.32739908 8.332037 0.33431476
-1.1684325 4.9584303 0.42139995
0.50852406 12.339323 0.36757123
-2.82979 9.025358 0.36645633
0.90138984 1.3449957 0.7732078
1.3121858 0.6434008 0.8269218
0.84103775 10.498238 1.3742459
2.0933394 -0.12496889 0.76677954
-1.9549737 7.414364 -1.876076
-0.5622095 4.090557 0.47166383
1.9810748 2.2664814 0.32294554
-1.7510848 10.252295 1.1558685
0.23169154 6.1335697 0.42820162
0.7332853 5.5018845 -0.4057687
0.8896328 4.9153023 0.7587012
-0.9116578 12.837982 0.64003444
0.8486017 6.7565804 1.0074213
-0.31965542 9.145679 1.5949948
-1.7412138 6.7066326 -2.2552972
-0.9096639 4.2386246 0.5628613
1.5148752 -1.4789562 1.1485972
0.13645628 6.5814495 0.99876213
1.3063614 3.8018467 0.018600175
-1.3798206 9.677057 0.6934643
-2.2823815 6.591939 -3.2918453
-0.5211053 12.490589 0.061302483
-1.780288 0.6345742 -0.1791285
-0.6410676 8.886673 1.2544146
0.1450111 3.5875459 0.8672825
0.32707858 8.140949 1.0609224
-2.097056 8.04911 -2.9399815
0.1193233 7.3223724 -0.3369556
0.36342144 3.6694942 0.48686188
-0.82041943 7.380659 0.07752894
1.860256 9.867941 1.168917
0.45055807 7.440485 0.35797298
-0.3493892 12.185015 -0.22364846
-1.2615552 2.85465 0.9293456
-2.1446538 6.8069 -2.2596855
-0.62463963 7.3929777 -2.852593
0.71584475 4.7117443 -0.5218204
1.9021864 -0.7713742 1.0601223
-1.1015923 3.6572876 0.2008504
-1.0971286 5.3054914 -0.33433884
-2.4818468 7.0023384 -2.926455
-0.31415963 3.9047446 0.71752834
-0.482036 13.614521 0.17581576
0.77082205 9.020901 0.58736837
-1.9336114 -0.41367227 0.5046302
0.9439492 5.9647675 1.0559533
-1.538718 6.5278444 -3.017181
0.8290731 -0.29565454 0.50035644
1.4390507 9.024801 0.16306895
-1.355309 3.6671963 0.4606427
0.08243398 12.702902 0.7973343
-1.2332785 7.123233 -2.7898083
-0.9105804 12.987556 0.20655319
0.40675962 12.0821705 0.08728477
-1.2136056 -0.12819767 0.79815245
0.68865633 5.2405577 -0.12087105
-2.3281035 -3.8559766 1.1010809
0.81082094 4.0457134 0.8304813
1.104063 5.229046 1.4570012
1.4520183 10.007751 1.3400521
-1.3580649 2.2535315 0.052978255
-1.9036515 1.4491048 -0.05448562
2.1635208 -1.6774163 1.3161983
0.72192955 0.37950587 0.5236925
0.27784324 11.943695 -0.53981876
2.3600535 -3.643704 0.60774636
1.5021803 -0.1513072 -0.078326255
-0.20613825 8.051357 -0.2817917
1.7372799 -0.14452964 0.65359294
-1.0878632 1.980762 -0.25063843
0.16053692 6.2737637 1.4133484
-1.4871297 5.703738 -0.18506584
-0.8389076 9.379608 -0.13514379
-0.711673 1.5263522 0.22272044
-1.8959522 8.420799 -3.2619586
0.8259629 1.2430825 -0.083869845
1.5569656 4.986351 0.09378596
-1.1826782 1.8970037 0.15493357
0.22303587 4.6127043 1.8528566
1.2005563 7.534683 -1.8890791
1.4863162 7.509819 -1.5331793
1.6925898 7.356724 -0.7950461
0.19289649 4.128132 -0.54287994
1.092566 5.5058966 -0.23327336
-0.6908152 10.820515 0.3847977
1.1461186 3.203558 -0.1174203
-0.6303959 6.537485 -0.35736555
-1.3896155 7.5381374 -3.477728
-0.53875136 2.0797234 0.14647871
-1.2911286 6.1231956 0.66259336
1.785392 0.67271864 -0.0075097964
1.3055944 2.0848322 1.2391939
-0.5649551 8.391916 1.747865
-1.083947 5.0657997 1.6158514
-1.3249674 2.430921 0.88122165
-1.5059426 7.3719997 0.041959815
-1.6399248 4.919565 -0.065166056
0.6945802 2.2085924 0.19161662
-1.6221261 8.543482 0.95437086
1.2443159 3.0676742 1.1907535
2.6125956 -4.577755 0.28661805
-0.43787658 9.5184 -0.13929582
0.47553623 9.612486 0.99240804
1.9203842 0.2502265 1.3119056
1.9769509 8.72476 1.1062455
-1.6066384 6.511961 0.22956951
-0.17837268 11.602577 0.33253706
-1.2537487 6.6543818 -3.2331867
-3.1402054 8.3342285 0.28993917
-0.90169215 1.6835566 0.9992058
-0.10556251 6.5561504 -0.16294542
-0.9182267 4.673622 0.58306384
0.020037819 13.30714 -0.4786874
-1.6024258 -0.275721 0.7857032
-1.0540712 6.812046 -2.5692315
-0.82121575 9.574547 1.2449017
-0.8452978 2.0076184 0.40697443
-1.1697929 0.8784715 0.021481562
-1.8786166 7.311781 -3.170937
-1.3843842 0.5852423 0.77339756
2.5570955 8.130587 0.47656912
1.5826204 -0.720206 0.44676465
0.81204355 6.0109043 1.6777122
-0.17618331 11.480028 -0.313955
-0.6051743 5.870842 -0.1449975
-1.8122244 7.9346724 0.54201853
-0.85460293 4.8284864 0.1952956
-1.4950881 6.0913143 1.190098
1.386452 7.1644716 1.0870965
-2.2254734 1.3439646 1.0465274
-1.3717015 6.8771744 -3.6115422
-0.51157546 13.200268 0.1951791
-0.93528366 7.5597124 -2.2030125
1.116648 -0.48933446 0.37063754
1.2325456 5.547349 1.2624712
0.7518635 3.250945 -0.099059865
-1.5301507 8.43339 0.54283154
-2.8663816 8.248013 0.10878207
0.12217423 3.2993474 0.50151813
-1.5488977 9.2829685 0.8900143
1.1713902 8.968174 0.753301
0.56303144 6.578478 -0.36062866
1.2615516 10.4042 1.2906528
-1.254565 -0.11742009 0.38385814
-2.3460956 -4.598712 0.4643402
-0.99000883 6.4962873 1.5595813
1.4680326 2.5415344 0.06965801
-0.5886401 4.703458 -0.26150066
1.4750669 0.710716 -0.22159168
0.40701544 11.048117 0.93071604
1.5434575 1.5810812 -0.24095172
1.4730315 -1.1733265 0.8674494
2.294969 -4.2959957 0.27210152
1.8143637 0.0008872256 0.007004842
0.58532727 4.5538387 0.12593007
-1.1481118 7.8985844 -3.6300292
-0.46160597 8.077248 0.072440624
0.22799745 8.159359 1.7492859
-0.46419173 3.8241663 1.0917308
-0.94208145 2.274763 0.11546865
1.6790884 0.83225954 0.8605678
0.55642617 7.494586 1.6484649
1.6968486 4.8123903 0.42921102
1.4311085 2.4331617 1.1011815
-0.11424181 7.422578 -0.003688397
-2.1550364 7.311039 -2.9113026
-2.6779137 -4.1836653 0.29068512
1.7656715 2.9069915 0.81875837
-2.01477 -4.291252 1.5586874
-0.99035084 7.5749407 -3.5772634
-1.2478604 -0.6590377 0.88057506
-0.8552846 3.310485 0.26394832
-1.5865343 -0.35808587 0.32719868
0.68213665 6.6116676 1.3422441
-1.8721423 4.9981527 0.28336728
-2.0904346 7.7721643 -2.3682752
0.84244704 2.544129 0.3616194
-1.3108284 4.3986692 1.0749156
-0.2805549 5.0458536 -0.27733874
-0.6437305 12.007801 -0.019627329
1.563704 3.3165097 0.42465687
-1.2302074 7.460634 -0.20181659
-0.80499995 1.2213371 0.48214644
-1.065131 5.379157 0.29020935
-0.97596586 6.8707333 0.83391964
2.5394907 7.712372 0.16158468
-0.2964478 5.372821 -0.5460454
0.15109602 9.393717 0.526844
-1.8209348 7.020606 -1.9977036
-0.39202458 12.7551565 -0.65441537
-1.4282446 1.5088377 0.12319568
-1.1132102 2.6076498 0.13956967
-0.58013463 5.67988 -0.47585118
-3.1065545 7.003227 -2.9226933
2.2965055 -2.809074 1.1092186
-1.6138859 4.556259 1.251086
-2.0062947 1.8286562 0.08147603
-0.57694113 12.407215 -0.5967752
-0.644596 5.7600155 1.8445652
-0.80589676 9.609556 0.2382657
-0.46149528 5.8046465 0.7900462
-0.06351659 6.7635126 0.24606633
-1.135636 9.458279 1.0032322
-1.5535569 2.4715848 -0.30641317
1.9065514 -2.4137597 0.90084124
2.0259109 -2.4957638 1.2626712
-2.6581845 7.4477205 -2.4202504
0.72948146 3.9516249 -0.16780996
-0.97286046 6.1722994 0.4557914
0.72571754 7.13352 -0.27716577
-0.68114185 9.80542 -0.04478152
-0.46386915 9.865894 1.4902232
0.4353276 3.9852982 0.15489358
-0.8584795 6.164756 -0.25839585
0.96653736 5.287569 1.0306842
0.8441502 10.216156 0.6128832
0.9319788 6.955537 0.19571841
0.8316014 0.0676209 0.3721615
-1.0977871 8.191515 -3.2986379
1.0156434 3.6218128 -0.14826906
-0.9051635 8.110533 -0.19163081
0.4770444 2.3386722 -0.15965399
-0.59048784 11.196239 0.2684706
-1.5225539 5.411108 1.1695144
-0.5175271 8.310032 -0.2347117
0.39784193 9.660126 -0.06816949
0.22969654 12.968674 -0.5743774
-2.2780333 -0.35223234 0.2529329
-0.14097127 4.3529005 0.063192084
-1.7492108 8.486273 -2.6047769
1.471796 -0.091706336 0.9771178
1.8584485 0.327635 0.20012417
-0.07247621 3.796784 1.2323525
2.1077366 0.9625182 0.9149215
2.1323018 1.1303699 0.5577687
1.4810047 10.1228485 0.2777897
-0.3025725 5.694374 0.47210956
-0.51092064 8.7034 -0.24283889
-0.691627 3.790215 0.74197173
-0.51038015 3.1493158 -0.39668107
-1.3502316 6.488537 1.3410945
2.2534385 7.630202 -0.13082522
-0.77123225 12.471918 0.71968126
-0.6143545 13.396519 0.8120483
-0.2377992 4.1296806 -0.5641283
0.43775427 2.7130399 -0.3076012
1.031421 2.4580212 1.0071661
1.2564209 5.0849075 -0.19843742
3.0909538 -4.568762 -0.1788742
-0.59901035 3.6450858 1.4534314
-1.2290792 3.602421 1.1838133
1.1947153 4.176012 1.390759
-0.6188939 9.744318 0.55704474
0.322419 6.948388 0.317479
0.57675374 8.636715 0.5895548
-1.3726497 3.7667713 1.4666989
-0.804252 2.0856853 1.1237175
0.3864743 7.2533264 1.0181336
1.0383687 9.454821 1.1646187
0.6502055 5.597536 0.96553004
-0.8007873 2.22996 -0.21275818
-0.6232139 9.489611 1.6002395
1.5208752 4.813633 1.0628242
0.19080538 6.536068 -0.48659354
1.6128546 9.247932 1.253186
1.0050128 3.5987554 1.4097319
-2.1891637 7.131568 -2.0707211
-2.1896186 -0.6965308 0.15906546
-2.1869588 -1.497621 1.3670406
-0.28258014 6.5004644 1.7564933
0.86310685 6.77777 -0.25314134
1.8412569 3.0840816 0.071377486
-1.8912742 3.8325973 0.80046463
0.9574753 8.287933 1.2727549
-1.3584378 10.444183 1.2756228
-2.049251 -3.1976004 1.2640455
2.295888 -1.9131851 1.0089169
-2.9713674 -4.574356 -0.35298127
0.7952759 4.2417336 1.6180146
-1.9639113 2.7258291 0.8237004
1.9980879 2.2233496 0.7447146
0.034958392 9.679386 0.8743336
0.43800658 6.39425 1.1592433
0.86240196 8.499027 1.6392245
-1.9464376 4.2362003 0.27180934
-1.007041 8.764416 1.1702864
0.503461 3.9507685 -0.5613662
1.5101373 4.350209 -0.10609922
-0.8442906 6.036439 0.8381177
0.687209 9.054255 -0.143426
-0.48373562 3.1506104 0.25189632
1.7908936 0.48675323 0.7689283
1.3365648 1.8597982 0.47459197
-1.3710313 8.202122 -3.5769162
-0.59374106 4.4985437 0.6567061
0.39094228 10.06448 0.4199844
1.6856885 4.166993 0.17849994
1.1950836 7.540015 0.02510039
1.2247691 1.3740356 -0.2520076
0.26710975 11.705717 0.24641839
-2.0649796 8.369539 -2.4080606
-2.9235444 -4.786997 1.6773803
-1.6739707 10.32012 0.74218345
0.57859635 10.033585 0.085757
2.2819524 9.312918 0.92877066
2.0904856 -0.12237343 1.164731
1.4680123 1.3284984 0.13670003
2.4988775 8.561583 0.53254426
-1.7752523 8.21121 0.79416835
-0.1213167 11.219177 0.31362945
-0.03111403 9.85832 1.4871082
-1.1903884 8.088112 1.5067666
-0.1582753 5.9753265 1.4525063
-2.336782 9.656683 0.23427731
1.0839013 2.8951619 0.5476375
1.2996407 4.1400595 0.23999888
1.1899853 1.2236633 1.1236079
-1.1365793 7.813759 -2.7092633
0.19533402 4.880331 1.1322892
-0.23596904 3.1382504 -0.14055893
-1.1922815 8.374155 -2.964223
-0.20146811 3.41534 0.2551999
-0.11535074 13.383949 0.24411169
-1.2022076 4.4983444 -0.4403522
2.1835222 -1.27301 1.2862191
-0.7221899 9.937302 1.1495149
-1.8468492 8.095102 -2.0598836
-1.9867125 -4.229273 1.1062689
-0.67751026 6.4962854 1.8249516
-1.8986311 -0.85130036 1.1521394
1.4919357 3.6109529 -0.27927518
-1.7540314 -1.5745888 0.92019105
2.0812335 -3.4536185 0.8047855
-2.3726745 9.222998 1.0058808
1.0267725 1.9457967 0.12791255
0.05744587 7.027298 1.0343201
1.6516044 5.09568 0.8007549
-2.628251 9.376261 0.29524267
-0.50025105 4.145523 0.105531305
2.6845717 -4.1923933 0.92164004
1.0044689 4.2545395 0.50430596
-0.0068868436 7.4962378 1.0911887
-1.7074826 3.063839 1.061439
1.9691632 2.6401038 0.58640957
1.4893894 4.0595503 1.1081555
0.8379855 4.2643547 1.1905193
-0.015658453 4.5600767 1.0760407
-2.0988579 7.7764177 -1.9686661
0.6566936 7.661193 -2.3997326
0.76635945 4.484663 0.7933501
-2.2860885 -0.37383884 1.1250408
-2.2184515 0.67597556 0.53670967
-0.049721397 5.353441 0.4629017
-0.5124773 6.848672 1.8348672
2.2606878 7.7454243 0.39962184
2.5901914 -4.5957403 -0.69290674
-0.7394264 5.050993 -0.17433289
-0.2666968 9.504723 0.66510653
-1.7987156 -0.7187083 0.22010717
-0.18207535 4.6583557 1.8737912
-2.6927004 8.50621 0.81520915
1.4554315 0.45673054 0.16695517
-2.6387882 -4.602971 0.11188732
-2.5157824 -4.2355633 1.0922606
-1.2154317 7.30781 -3.1819215
-1.5874407 3.541782 0.15913233
-0.8610654 7.7769785 1.5792589
-0.49897724 12.447613 1.0608983
-1.4404423 3.9038038 0.054371014
1.7118692 1.2877944 0.47376454
-1.1847594 7.2992167 -2.0503979
-2.6890683 9.35717 0.67818725
0.01169402 3.1764069 0.86914885
-3.134026 7.529855 0.085410684
0.015326811 13.197351 0.6001828
-0.46894383 10.536903 0.16353863
1.8650498 1.8578105 0.031042967
1.1047108 5.9782896 -0.0745506
-1.3168893 4.715151 0.053649895
-1.5138648 7.5605497 1.1208532
-1.6314206 9.35803 0.489406
0.61885583 5.3720646 0.25650626
-2.5070724 7.997842 -3.3000746
0.67029285 8.612364 1.2871494
0.81537807 3.3174367 -0.49338305
-0.89268136 8.582853 0.48716986
0.2953266 13.040548 0.97280526
1.4074337 7.443945 0.3778864
-0.22594646 5.3645554 1.1586862
0.2641958 7.5016403 1.3878837
-0.09725052 4.934473 0.4307505
-1.423826 5.1054325 1.3475089
-0.93836033 5.8375397 1.2156003
0.8273765 0.7808527 0.7667805
2.038403 8.365166 0.90271056
0.22861585 4.5483274 -0.19176146
0.9152137 3.2844577 1.2916286
1.6306129 2.0770721 0.252203
-1.0481229 5.091357 1.2077632
0.26390922 12.304152 -0.6429217
0.07556003 8.020855 0.5348375
1.9053848 3.0570188 0.46262825
-1.2049587 2.0662866 0.96184516
0.43834847 3.1436477 -0.439084
0.00605236 5.5668097 1.4313478
-0.18438795 11.78866 -0.019083237
2.146759 7.2381296 -0.7556652
1.1488092 5.895545 1.3709025
0.29076117 2.8358521 1.3506773
-0.5388427 8.964897 0.50875366
-0.24664372 10.237707 1.4276464
-1.2390997 9.248686 0.6382575
-2.1322722 7.5322046 -3.3990993
-0.0122984145 8.618404 1.2610047
-1.2127922 10.792721 1.1263356
-1.1081398 5.327321 0.6673907
1.0832393 9.057676 1.1161668
-0.66874695 10.4682045 0.57098925
-0.50180197 4.8325176 0.4230616
1.2195532 2.6577024 0.30893534
-1.6488166 4.1914406 0.9382541
-0.1547024 6.500579 1.3889756
-2.553491 8.060936 -2.9078588
-1.5295196 -0.70496106 0.5100043
1.5908556 5.620352 0.38020885
-1.4371581 8.022242 -2.0639849
1.5083792 0.16621023 1.3410568
1.1740594 2.6409397 1.2963381
0.20780104 8.582851 1.7192808
2.2734008 8.0655 0.21315485
-1.7283959 4.1669836 -0.118550286
-1.3653042 4.7724657 1.4803817
-1.6334064 5.7414675 1.0080774
-0.9072994 8.095049 -2.9613004
1.8251891 3.6548142 0.71518457
0.8046416 2.8009415 0.7630799
-0.73961306 8.395636 0.11969489
-2.0045648 8.482796 -2.8838067
0.6671339 3.1621466 0.9727994
0.4546314 3.3853931 0.75111127
-2.0644784 2.6215563 0.21473682
-1.7799315 8.729113 0.3152942
-0.0109560555 6.346525 0.7205421
1.5164454 1.1860731 0.83265376
2.2936144 9.443275 0.5639777
-2.1613035 8.817383 0.4123531
2.1826239 -0.8027344 0.6852417
-0.44436282 12.897669 -0.067902386
0.40362233 12.612841 -0.45729703
-0.46351403 4.5411158 1.0352125
1.2090921 9.239029 1.452496
-0.8320279 6.243991 1.2750075
0.27365488 7.151127 -0.024268843
-3.4307218 7.071212 -2.0720754
-0.2851479 12.132132 0.94353926
-0.3058982 7.268902 1.753869
1.3093958 7.1089315 0.21661142
-0.33785844 7.2582846 1.0855026
2.1029334 -2.079496 1.2933424
-0.3200102 9.702402 1.1358788
1.4100187 4.098093 0.6280273
-1.0044012 4.0735416 0.8853574
1.1461995 9.1780815 0.3788545
-0.052775912 12.018602 -0.7700875
1.7784123 3.9184408 0.43485397
-2.4992113 8.512676 0.23677683
-0.67307353 4.565234 1.4033234
-0.25654948 2.7622151 0.04154686
-1.8149352 5.3823624 0.43543428
-0.26552528 13.69132 -0.08562073
0.4927795 4.7204027 0.533983
0.101511836 9.040976 0.17500895
0.4772247 12.491888 -0.038858093
-0.5544058 6.1239004 -0.47346085
-0.8854718 6.4175396 0.79874086
1.4616287 10.594149 0.9943521
0.2862954 7.9666433 0.09449707
-0.08527358 5.3843384 1.7952285
0.3373046 8.281023 0.70071006
0.50802076 3.9046931 1.6379368
-0.880154 10.453281 0.21243572
-3.2713747 7.442603 -0.772437
-1.5970969 6.6450663 -3.3993144
2.185719 -4.313242 1.4506936
-1.6581233 5.771778 0.14655009
0.022412688 12.821194 1.1859102
-1.5634973 1.8586464 0.06400502
1.2341981 4.8679 0.20263568
-3.1672344 7.6179457 0.4687087
2.4091277 9.006304 0.60752225
-1.134233 3.3199124 -0.40366817
0.042121664 6.852989 0.6635245
-1.4132884 0.6484822 1.3625038
1.0829346 0.6432382 0.5108206
-0.099367514 11.105398 -0.095769376
-0.65095985 3.126535 0.65239465
0.88796496 6.544656 0.1122469
0.15474683 6.081459 1.0676835
0.59798765 1.3588412 1.0783856
-0.7543392 7.158762 0.83198905
0.39881927 10.561504 1.3499959
1.4277518 5.979163 0.2135899
-1.5583062 8.144587 0.19979441
-0.62047267 9.32179 0.5392709
-2.1044364 -0.3901928 1.4635057
2.5487952 7.4839754 -0.2141608
0.44458622 4.2146444 -0.18097523
1.599832 1.6091793 0.7322179
1.8500447 -1.1662896 1.0610936
-2.298843 8.328236 -2.7318325
2.195118 -2.652072 0.795653
0.2577117 13.557497 0.48144186
1.8177836 9.927822 0.6712971
-1.353591 6.7063456 -2.364161
-0.06904146 5.1669846 0.085761234
-1.9082968 -0.37887734 0.04857607
-0.18769398 4.6145906 -0.26786047
1.213764 10.436213 0.41357064
-1.1450822 7.724475 -3.1595387
-1.3347332 7.54056 0.7388791
-0.56632733 10.190399 0.036998518
-0.22644475 9.238161 0.32916892
-0.41401798 8.1989975 0.41985422
-1.269671 6.6136713 -2.7841892
2.371266 -3.4336667 0.9611827
-0.91654253 6.620365 0.44037563
-0.9439484 3.7420988 -0.4915936
1.29421 10.179573 0.99793375
1.412936 8.881498 1.3322794
0.17462781 13.411161 0.8947046
-2.5239196 7.41348 -2.781835
0.51383924 8.499941 0.076872975
1.1503973 8.787476 0.38881737
0.930912 5.587344 0.3406008
0.95818007 6.793667 0.5755131
1.199564 0.28137565 0.47978097
-0.16253248 9.339239 1.0534308
-1.8301947 2.1283598 -0.14816663
-2.1444478 9.790091 0.63918316
-2.1105933 -1.7341375 0.79362833
2.0433707 9.085613 0.63106096
-0.19164595 6.236912 1.106303
-0.7444742 6.1329966 0.1234076
1.7859211 0.10959567 0.97229993
-0.6620352 1.5268292 0.6899239
0.17083022 7.745345 -0.3041944
-2.8712602 6.705633 -2.8394728
0.109529495 4.9378414 -0.2638337
-2.0743027 3.4043856 0.5076524
1.4888296 -0.2796985 1.3606322
0.7011858 8.392145 0.9364182
-1.7043242 5.367242 0.048777536
-1.9379215 8.059774 -2.5646238
-0.5780562 6.6553698 1.4456143
1.5695386 1.8028896 1.0633626
-2.11054 2.3614593 0.855615
-2.1255865 0.96467173 1.1960135
-2.1122246 2.0158677 0.97158074
-1.2203858 7.6456985 1.4762819
1.1804969 1.8577828 0.8974564
-1.631392 -1.0563304 1.4849563
1.110743 9.851416 1.1400425
-1.0598748 1.5725319 0.3426767
-2.6221538 -4.624969 0.906495
-0.5360793 6.0139656 1.111639
-0.27933806 2.5130892 0.6253098
-0.26554006 4.4896793 1.3722382
-0.7418015 8.819834 0.14233556
2.0221596 -4.5977364 1.2800789
-1.462183 1.2440546 0.86218464
1.1550622 -0.16158292 0.21378863
-1.9570088 7.6722097 -3.0148911
1.8007197 -1.3651714 1.4311726
2.3008337 -2.3586397 1.0588765
-1.7212851 3.5671492 0.55623615
1.5121224 10.639906 0.6181538
-2.3725295 7.669051 -3.0710616
-0.5330746 9.301899 1.2424681
-3.3250334 6.8926306 -1.8098431
0.12832534 5.2539196 1.1029563
-0.5523323 4.91607 0.7904048
1.1228945 8.016922 0.5888876
-2.0134974 9.892599 0.21201402
-2.6183953 -4.335843 -0.16610861
-2.016787 6.587077 -2.5651302
2.0962853 -4.253751 0.6336206
-0.88859445 3.055303 -0.3322863
-1.643913 1.5710773 1.1598105
-0.13647816 13.001234 0.19284555
-1.666928 -1.1096804 0.8919364
-0.049147516 6.1537514 1.7693357
-2.1519742 8.84952 0.9619212
1.546972 8.928677 1.0014758
1.2643204 9.644989 0.8550892
-1.9137802 1.0179918 -0.049274586
0.20778534 5.2797775 0.7366345
-0.40554792 5.220093 1.5237467
-0.97582376 10.044315 0.06873655
1.7676711 3.421978 -0.03794328
0.86951554 4.916893 1.6170855
-1.5756316 7.2165403 1.0444086
-3.202857 7.534832 -0.334719
1.9564025 -1.5753253 1.0337303
-0.270926 10.653303 0.47725767
-0.70624125 3.4459662 -0.49243885
-0.030415818 11.080095 0.9122056
0.23157424 5.6487894 0.9919441
0.6100131 10.204638 1.5134032
0.8151196 8.013632 0.95859385
-0.07804251 12.903696 -0.2661457
-0.12479518 4.1377554 0.42080253
1.200089 0.76441693 0.18613443
-0.4451074 4.3063555 1.6498377
1.6305048 5.2280254 0.43819606
0.77999294 4.4494925 -0.20888671
-0.25532013 12.215807 0.13674924
-0.5332446 8.372896 0.75315297
-2.2516708 8.428518 0.5778364
0.25882882 10.356293 0.16110796
-0.7583827 12.253983 0.25658667
0.20915952 11.017666 0.18179342
1.7830133 -1.7829039 1.3213744
-1.1137788 8.825771 0.13410228
-1.153758 7.1969175 0.17414472
-1.1498113 7.915946 0.87856424
-0.22841108 13.416618 0.9182414
-0.5952101 8.001316 1.7945645
-0.38113213 11.357471 -0.007969635
0.057558715 6.364067 0.18209442
-0.4745837 5.3596563 0.7602892
0.18541297 10.231478 1.4212792
0.38203892 10.688614 0.83908916
0.98542416 3.84971 0.2449471
0.15425974 6.5112205 1.7916272
-0.15286407 10.325888 0.065273255
-1.2729838 8.24511 -2.3229518
-0.23996183 6.5803614 0.5435462
1.4078307 3.1334405 0.7356577
-0.5053272 8.600567 0.43324685
-1.6567745 6.818987 0.8845304
-1.0765288 1.8546915 1.2900813
0.0045352657 2.838336 0.6381937
-0.015012804 10.707611 0.14475548
-1.9299543 -1.2887347 1.141578
-1.1892147 7.212901 -3.6769156
-0.25818264 5.7783356 1.7924747
-0.61634827 4.169155 0.8919456
0.6350694 3.5958986 -0.25542438
-0.059483804 7.462391 -2.949401
-1.8568248 10.67436 0.7045425
0.25134295 4.7944555 0.14258996
-1.8131828 -0.39716768 1.1835527
1.6919692 10.275669 1.1232862
-0.74446666 7.7799835 -2.9496717
0.91647923 10.197374 1.039432
-0.29834056 10.875729 1.1484668
2.0267367 8.495062 0.19479102
0.6220236 4.960576 0.19876286
1.3570428 4.504483 0.43694
0.7829592 4.2221212 0.15854368
0.24891457 7.6039257 0.69144213
-1.8492012 9.097273 0.24030504
1.9849267 9.472612 1.1724229
0.93148077 7.4316206 0.28092098
0.9868916 7.9136944 -0.14779833
0.16039985 11.260279 0.64883834
-1.8339312 3.4585586 0.92976344
-2.8713727 -4.577533 0.47312498
0.7673812 3.605363 0.54241955
0.25303835 2.9064455 0.30129075
-0.85145783 7.575158 0.828112
0.45626092 12.507034 0.69807374
0.9327849 0.059919156 0.7485763
1.5658681 2.8596969 0.43845612
0.12370202 6.0908527 -0.54016316
-0.90701246 7.258608 -3.4420605
-1.1711924 8.267315 0.5170027
-2.2154408 -3.648642 0.75148165
-1.5220561 9.338299 0.03654091
0.48810798 3.7966752 0.83098423
-2.1636968 6.916033 -3.134388
-1.4040751 3.0141006 1.2604798
0.8428507 3.5627341 0.932865
-1.4380803 -0.9023732 1.1741483
-0.38022763 9.936411 0.3100167
0.29038614 3.2385392 1.4869039
-0.734275 7.3602543 1.1687689
-1.6439154 6.5157576 -2.6148834
1.5798066 -0.3341623 0.3754958
1.4062066 -0.49749142 0.07204977
0.7889272 8.87912 0.21616203
-1.539161 4.3267384 0.17972386
1.1663077 3.4515004 0.5652834
1.4917061 7.252454 -1.2831647
-1.7342863 1.7374232 -0.23797157
-1.5187023 3.0912538 0.046111368
0.27950138 5.855154 1.3838284
-2.0141287 -2.9044209 0.92190266
1.1830018 2.2054682 -0.3622532
-2.306294 8.4260025 0.95921654
1.1408279 1.1564262 0.14627051
-0.14525917 6.116949 -0.17713472
2.245346 7.3335953 0.24271649
-0.2049993 6.352603 -0.51878166
0.23949787 4.3264694 0.16924793
1.7636383 9.282743 0.31967527
-1.6370649 6.452821 0.66840804
-0.13723692 5.593834 0.12521741
-1.8749931 3.881462 0.08879346
-0.8612969 13.188234 0.51797664
-0.6699406 4.138257 -0.54619586
0.54863644 6.2083473 -0.434542
-3.0142503 -4.5503187 0.05980538
0.7028767 9.923883 1.2217202
1.0296311 3.1747484 0.8712113
-1.857327 -2.2159925 1.3206108
-1.2500429 3.9822812 1.1346169
1.7886643 9.21283 0.8447108
-2.2579317 10.452126 0.59388983
-0.8639389 9.850672 1.5649657
-0.328839 6.409256 0.17633697
-1.8654213 8.344025 0.41757154
-0.86406004 8.659943 1.5642166
1.1376846 8.643297 1.048506
-1.3422613 7.716749 -2.3831549
0.43390298 7.884198 0.4113896
0.2551244 2.211186 0.5068214
-1.5301437 -1.3364236 1.2042964
-1.0173905 10.271553 0.6462519
0.7243422 9.261578 0.95962775
1.5021749 9.606922 1.2938802
-2.219149 -0.72876096 1.3488245
2.3452172 -4.6120777 0.03947597
-0.80695 12.716896 -0.023083538
-1.9304005 7.4832687 -2.6453433
1.8131495 0.93109477 0.56228507
0.11555 10.089895 0.75070345
1.1517377 3.0386972 -0.4551906
2.5687957 7.117959 0.42882687
-0.31009382 3.9666996 1.4854746
0.054274626 3.9800277 0.86077785
-0.015966553 10.111528 0.37028044
1.1962202 3.908256 -0.4466629
0.39825898 5.910742 0.7035829
1.7744164 8.468023 0.5666683
1.4370883 9.437407 0.16346544
0.09827769 4.9929543 1.8003292
-0.50164914 11.959097 0.33796066
0.14603633 7.2115145 -2.5044603
-0.80135274 1.8542495 -0.0035957228
1.4549737 3.6960058 0.758272
-1.7107339 5.7677526 0.5709866
1.8004093 3.3097186 0.7650745
0.36349517 8.869265 -0.14365992
2.3436284 8.473757 0.23722748
-0.06701793 8.857793 -0.19096011
-1.6861167 10.177324 0.26891297
1.6402087 2.4215164 0.45054883
-1.4817166 8.290508 1.2283471
-3.1376452 6.734887 -2.5968628
-1.5626562 4.7502956 0.37424725
-0.606171 12.164719 0.6951517
-2.082964 10.399954 0.9311192
0.99338496 6.4045496 0.4510051
2.1942596 -4.684476 1.6707659
-1.2019482 8.6341915 0.8134879
0.9808923 7.960458 0.25042248
0.46409994 4.1665277 0.90174735
1.7491426 2.743948 -0.15111122
1.0139592 2.45392 0.65396154
-0.40975034 5.57734 1.497699
-0.007026296 4.346546 1.5964751
-1.1665952 8.973913 1.5270572
2.2457232 -0.84549403 1.1450715
1.8016872 -0.42681795 0.07500148
0.73036754 9.065306 1.3138902
-2.2759051 -3.9239547 0.4367447
-0.31638557 3.496069 -0.3872543
-0.57450855 7.412945 -0.28732115
-2.3688273 7.329499 -3.683405
-2.359397 -4.2020187 1.4808414
-0.34244925 3.798346 0.2394031
2.1370516 -3.6364722 1.15486
-2.229577 -2.1613383 1.2292998
0.05190085 6.9198856 -0.38474202
-0.46572745 6.2582626 1.472496
0.38896018 12.9298725 -0.2581734
