0.61382437 5.204215 0.9384116
1.4837341 3.4975963 0.061256163
1.7896364 4.3671846 0.47419637
-0.9035771 4.71896 1.611793
0.17960918 5.2874546 1.4653807
-2.434239 9.391907 0.26731524
-1.5128825 9.01498 0.25658292
-0.3300919 7.579238 -0.4203902
0.49928796 4.4972773 0.98307604
2.160317 -4.5656633 0.90991735
-3.4966884 6.9540586 -1.8861635
-0.025599096 8.9863205 0.8507869
-0.59479105 7.129237 -0.08480714
0.63446796 6.8705406 1.6069012
1.1048136 10.000954 0.33060026
-0.47080588 2.575922 1.0253949
-2.158782 -4.302105 0.5973375
-1.2795963 7.589124 0.13901547
2.504384 -4.2324333 1.2367721
0.17500046 5.755556 -0.3070644
-1.4600167 -0.07055555 0.09374146
-4.6980276 6.147788 -1.0616915
-2.34452 -4.2416115 0.122828424
0.30046135 12.076738 -0.48141187
1.1380825 7.0112762 0.7254839
-0.17823425 4.1576033 1.0486732
1.5520325 1.8134799 -0.05792982
0.33414078 5.1008587 0.29956305
-0.30501324 3.4333444 1.2496598
-1.3727262 0.4991715 0.42418325
2.1781502 1.5374146 0.50261784
1.9953825 8.986977 1.2895889
-1.6654923 7.854686 0.83936286
-0.79191077 10.187708 1.2629948
2.8650784 -4.294203 0.030347213
-0.0131266145 9.961758 -0.1885154
-1.4972293 0.94917667 -0.24876943
-0.08870837 5.0999527 0.75516796
2.8676777 -4.5492754 -0.89165366
-3.6205473 5.532653 -1.1193786
-0.48460293 10.275511 0.35128284
-0.8028234 7.6594524 1.5025969
-3.4896564 7.010724 -1.417454
2.0273485 1.808891 0.72582555
-1.5630817 8.929634 0.6632825
-4.4388933 6.2660637 -0.8004043
-4.7540245 6.6294365 -0.84499717
0.76380324 2.5216808 1.2578671
-1.1530592 8.447361 0.047308043
0.50288963 4.2259655 1.295403
-0.58345735 11.618006 -0.5022087
1.0649841 0.9470146 0.29800916
1.4762957 -1.074652 1.0977669
-0.17997989 12.559839 -0.889241
-3.8580136 7.0318403 -1.3399825
-0.5099163 10.69389 0.5178355
-0.2637909 12.662907 0.23319656
-4.7801466 6.615484 -1.4562699
0.45085555 7.8427515 -0.3059113
0.97317874 4.647008 0.35155967
1.0532141 1.8727176 1.1862354
-0.8560668 0.8856629 0.25881022
2.264224 0.67529607 0.58555245
2.5226579 7.338311 1.5340598
-1.9732347 3.1398463 0.19314492
1.2120733 2.8705482 -0.16584414
-1.590914 10.031454 0.36156476
1.6331801 -1.768264 0.97897005
0.22571832 7.762059 0.9485215
-0.81851256 10.8083515 0.94889104
-0.19236639 3.2207332 0.97011566
-1.1132066 -0.47198457 0.61959183
1.4289753 6.8089914 0.48646194
-2.846766 6.967965 -1.0594308
1.7239943 9.390682 0.8675926
0.33237326 13.256416 -0.42550206
1.4251974 5.316807 1.0610466
-1.2950459 10.501301 0.6167164
-3.5513763 8.606537 1.2790298
-1.7838473 4.988533 0.5680566
-0.87607384 7.067445 1.119643
2.8262744 4.3898926 -0.38698608
-0.08151993 3.0710535 0.26097077
-0.13637078 4.693284 0.6707257
0.90785706 8.353458 0.1943559
-3.1894093 6.1259317 -1.107192
-1.8343673 -2.1804104 0.94313765
-0.64558935 12.748663 0.016962163
-1.0898676 1.3893337 1.0407898
-3.7681541 5.8974686 -0.88716507
-0.657784 5.0728664 1.3721919
1.3235695 0.3956917 1.1174688
1.9167995 9.904255 0.2228828
2.6240444 -3.9076633 0.6152612
1.5162346 3.6787424 0.44134814
-0.8421507 5.6596184 0.11389884
1.3665218 1.2998328 0.3768273
1.5819817 -0.5491327 0.7423245
-0.086352274 5.853863 1.0955939
1.5859461 6.064519 0.5924821
1.7808032 8.8817425 0.47717315
-1.445545 -0.1562489 1.3313646
0.70660627 2.1057796 0.38679773
0.43039638 4.791795 -0.6696825
-0.55567205 6.736768 0.60776734
-1.5085962 0.43726987 1.4519486
1.7483189 -1.5048132 0.65154517
0.7002783 7.48674 1.2253404
-0.85145235 7.8013363 0.097281784
2.9874058 -4.5984106 0.2268852
-1.2216456 9.794801 0.23189378
-1.6081693 2.1540341 0.25908047
-0.11214021 10.507921 1.0804582
0.63451934 1.88466 -0.13420528
-1.2991693 5.5585823 0.70298576
-0.35670507 7.165104 0.21926445
0.50884485 1.3767331 0.3425988
0.75120735 10.512283 0.5799278
-1.347847 1.6792257 0.84292674
0.9379847 2.0273867 -0.34269935
-0.82329965 6.4711914 0.012322567
2.7718163 -4.3796387 -0.4150318
0.2242097 4.0227127 1.4973035
-0.27935004 7.0276594 0.5963588
-0.07332212 12.043249 -0.31375116
0.6528261 1.4808147 -0.026007399
-0.5175526 6.252371 -0.16618234
-1.567595 1.2036135 0.13032678
0.5154346 12.906425 0.14805573
0.5106629 5.0728693 1.3583884
1.265609 0.97985506 -0.32465792
0.5814564 10.319862 0.009369017
-0.14321992 13.535307 0.37343323
-1.6513817 2.3960056 0.9074496
-1.3902786 1.7998044 0.4456575
0.7471335 9.385359 0.106400535
-1.1400309 6.374112 0.8476393
-3.542439 6.310691 -0.960734
-4.881276 6.9238434 0.29521555
0.45731652 5.58663 1.4321215
-1.0480072 0.5709182 0.18312344
-3.2354078 6.318141 -1.8532863
-0.51248395 6.776944 0.20344737
0.9143138 4.1917696 -0.5659729
-0.37358737 7.856246 1.3025379
1.1488547 8.62966 -0.056110434
0.8274281 6.280245 -0.35762298
1.0843406 4.631855 1.4841554
-1.1842442 4.4783382 0.64166605
0.8496916 3.1674519 0.478741
0.15108341 5.747837 0.39304787
0.1507133 4.1166363 -0.28466868
0.40456814 6.281436 0.61349106
0.66237307 3.113586 1.3174541
-1.1036422 3.354782 1.4043245
-1.2471719 3.4397821 -0.09280905
1.1213975 7.8214865 0.83075225
0.017951772 3.6976209 0.46541613
-4.5778284 6.8211355 -0.483886
0.2395091 7.832657 1.7284374
0.52231205 5.5707264 -0.22472197
0.54410136 7.840599 1.1804001
0.11688605 13.490071 -0.1637716
-2.8451772 6.467906 -0.5636761
1.9428709 -0.10934453 1.265789
-0.4240232 6.1526403 1.767652
-1.0196166 5.5427427 1.0019648
-1.6345773 1.3616042 -0.23020959
-1.3180568 9.39171 0.15860972
1.5901761 8.791126 1.1081455
-3.9213052 8.493324 1.2484667
-0.8350059 11.07756 0.37046874
0.6929487 4.6231804 1.3406284
-1.966346 0.5521635 0.8948791
-0.4534825 5.609189 0.06878014
-1.0827999 5.947056 0.8734678
2.3315525 -1.5080101 0.7494557
-0.5944514 1.8758125 0.7237979
-0.18831232 6.9438725 1.2584176
-0.59776807 5.2151775 0.09903526
-3.9942746 7.160923 -1.0085459
-0.68491054 7.440336 0.2970875
-1.1296928 2.593289 1.3013496
-4.6056194 5.8846645 -0.7086679
-0.62253106 9.500088 0.74988544
0.14729333 10.342062 0.7813139
-1.7381086 4.598441 0.75031435
-0.3410613 7.151017 -0.45104378
-0.01866388 10.407267 0.3196808
-3.402073 5.9803057 -0.790982
-1.4732327 3.2752542 -0.3851998
-1.694798 1.9610794 0.9692966
-2.235218 -0.8278432 0.9033575
-0.9829142 1.0108292 1.0932384
0.19196069 9.338171 0.74457335
-0.49411726 10.773619 -0.16805333
0.5223237 7.6811886 0.0385741
0.0824289 13.074842 -0.21849799
-2.0391083 2.9488401 0.5128387
-3.792396 7.4696283 -1.3428233
-1.7228236 7.6696787 0.028628752
-1.2828662 4.8441563 -0.43771577
-0.5294634 12.372696 0.17796955
1.3722076 3.4747634 0.79756856
-1.883826 2.539338 -0.1605261
-0.8363949 3.8400798 0.4290421
1.2667732 5.7564707 0.53928924
-1.1329727 9.885965 0.6001686
-1.3939524 8.423529 1.034337
0.16458407 3.3075433 -0.41813403
-0.58215797 13.534576 -0.096690685
-0.9528971 5.759136 1.5031466
0.95302224 1.6206682 -0.26995486
-0.09770891 9.222858 1.2139685
-0.9611441 4.730199 1.2265303
-1.8415442 7.637518 0.6265583
1.1500454 8.236509 0.867985
-1.1449747 6.1255836 1.34868
-0.88982606 4.617341 -0.20092657
0.53937495 8.215807 1.2012289
0.13137278 12.924643 0.16755971
-0.32334298 4.9621305 0.0066261278
-1.114593 9.926214 0.9840251
-1.2484865 6.363121 0.4937169
0.85596824 9.725159 -0.17057234
1.5498495 3.299612 -0.4290465
-1.7004898 8.261408 0.47029746
0.28321713 10.623262 0.10836202
0.65650296 1.0594809 0.12133701
-1.3645074 1.1540153 1.2379138
2.4359756 8.360813 1.3500257
-0.19388556 9.583572 -0.29453015
1.0518737 7.1886373 0.37882942
-0.07697703 7.632468 1.559211
2.183538 -0.36219305 0.2906052
2.1056645 -1.7935224 0.5839431
1.5555949 3.0808234 -0.04065179
-2.8353028 9.919535 0.6561171
-1.6077743 9.742115 0.0055000586
-0.86208117 7.266492 1.4875193
-0.7687032 3.889842 1.1716015
-2.1297398 0.27193272 0.28751016
-0.06716749 12.30839 0.42877495
-0.08867875 9.749369 0.18045548
-5.007124 6.4608917 -1.1385763
-1.525007 0.03320568 0.9427767
-0.32109404 6.724861 -0.5368129
-0.42676437 2.4301634 -0.12155478
-1.9555995 0.17849034 1.073462
0.16508758 7.5059605 -0.05529721
-0.7652137 10.076864 0.6011634
-1.605284 0.8423705 1.1378603
-4.0262747 8.364086 0.916857
1.1999629 7.0771475 1.1245399
-0.61288404 11.883062 0.52892864
0.72479856 5.371463 1.6272604
-0.38345867 2.8859406 0.39512813
-3.0066462 6.7232466 -0.33434534
-0.2751236 2.455958 0.28981704
2.1207852 1.5064614 0.16975898
0.44616485 1.7647114 0.21660867
2.3249106 8.804998 1.2556095
-0.04707717 4.8525248 -0.71536505
1.7692306 2.103897 0.937932
-3.7582917 6.4165516 -0.30906343
-4.6586676 7.814784 0.58629394
-1.6927156 7.516116 0.32325053
-0.7419294 11.945078 -0.72579837
-0.92394555 10.682156 0.6048163
-1.3640561 -0.56509614 1.241138
2.6058426 6.682825 0.678074
1.6994302 0.5137253 1.0239539
-0.37294447 7.40769 0.5714085
1.0872362 7.270446 -0.051905543
0.36722255 5.4392376 1.8251922
0.56341016 8.160837 -0.0040010586
0.05890464 4.894102 1.4688683
-2.0033526 0.6370417 0.0869986
-1.0784945 2.1845288 1.291801
-2.1369824 -1.184998 0.7499925
-1.0468607 3.8022933 0.7636634
-0.3387326 8.042114 0.63423705
-0.50230694 8.572236 0.96123004
-1.6576908 10.6418085 0.79984915
-3.5042248 6.702716 -0.86486447
0.3963524 8.912207 0.83297026
2.0893588 -3.8805113 0.74190605
0.69754374 3.836141 1.1656795
0.47965664 6.367934 -0.06973785
-1.9515023 3.5268598 0.15154809
-4.6779547 7.494913 0.82276034
-1.7082517 1.0861471 0.48474628
0.9089545 8.479473 0.6109952
0.935019 5.7132406 1.473355
1.251586 -0.014992413 0.9780673
-1.0294497 3.0528145 -0.021926064
-1.3055685 7.1426077 1.0661006
-1.9040403 10.390343 0.17710662
-4.2383947 5.642888 -1.4191239
0.07301235 9.611912 1.0634055
-0.7696117 12.639954 -0.63017845
-1.534003 0.8075886 0.15945646
-0.8828567 6.673174 1.0908871
0.2454949 5.8089924 1.8116481
1.0797229 7.3467226 1.4006324
2.540359 6.6339893 1.0937767
1.4054286 -0.20028737 0.53004956
-0.25117314 11.601173 -1.0722003
0.058340885 3.58465 -0.16427684
-0.13332036 6.1404686 0.3986014
0.37862122 7.154978 0.63995445
1.268405 5.3015575 0.6648047
-2.315207 8.663637 0.53349745
-0.56848836 13.051378 -0.66270506
-1.3040252 5.4905977 0.32675803
0.95211387 2.9764547 0.130095
1.5404544 2.7646961 1.030273
-0.547258 7.551751 -0.047870457
0.50704706 12.974726 -0.21950558
-0.19612655 8.441732 1.5302787
-1.4204059 3.395172 1.1714284
1.2178402 9.814892 -0.059395157
2.0666451 -0.7355497 0.17954952
-0.8955214 6.8926153 -0.025452273
-0.63316005 11.429817 0.23710096
-2.1432953 9.427866 0.5015135
-2.9204144 9.127613 1.1473086
0.41882277 7.43237 -0.37429744
0.92013025 7.941841 1.1389005
-0.23963562 7.5716734 0.23057792
-0.6309928 4.879821 1.0426166
1.0912454 5.264127 0.016521301
-1.0131271 2.6258416 0.5797466
-0.9739108 12.463581 0.12836692
-1.0072131 4.0811796 -0.5296694
1.2894251 3.1164584 0.22396907
0.45943123 1.7498059 0.60736465
0.71596444 7.663413 0.83933735
-5.043104 6.6893387 0.007686654
2.2770047 -3.934853 0.372095
-1.7233117 7.220742 0.5329013
2.7407093 7.5807533 1.3690884
-0.7482959 1.2715111 0.85294724
-2.4171753 -4.6028633 1.3224328
1.5540447 6.481982 0.76582086
-1.5454204 -0.817052 0.8706646
-0.42067438 12.464294 0.5616622
0.89543414 2.8592744 1.1229317
-4.2594748 7.556094 1.0271559
-1.9465859 9.031069 0.5129428
0.6758264 9.815271 0.20646149
-2.2618089 10.229179 0.14167634
0.11821771 9.502655 1.4655192
-0.8858863 8.490822 1.0668318
-2.5513296 -3.9532824 0.74287105
-1.286623 6.762432 0.9963691
1.5947225 5.564954 0.72600675
-0.028047875 10.8273945 0.31952196
-0.81673825 3.4378138 -0.17549485
0.58935416 2.4884968 0.506361
-1.843781 -1.6576369 1.4258893
-0.30183846 13.367102 -0.6740873
2.0306726 10.188412 0.45316452
-0.9615706 5.729727 0.49973273
1.1269021 0.72797096 1.0310297
0.25247103 4.833294 0.6760899
-1.3688712 8.016058 1.069433
-4.8767815 7.2627144 0.19360527
1.6503816 0.96245205 0.09899208
-0.28414166 8.791231 0.28327447
-2.3422856 -4.605874 0.64119494
0.42305028 2.4197059 1.0880435
-1.0180912 9.153938 1.100801
0.13071233 3.9109445 0.07989842
-0.6591364 5.2323923 -0.56094337
-1.9548919 9.928059 0.9866694
-0.19224846 8.269526 1.1963558
-0.75815666 4.267597 -0.2597443
0.11903696 12.524975 0.15868601
2.817391 7.3144445 0.95335186
-2.12742 -0.06709261 0.10369243
0.92742455 8.191046 1.4592531
0.6393918 2.8442216 0.285751
0.4568439 5.47785 0.521376
-0.5117409 3.0599332 1.1563659
-3.975873 7.530485 -1.019696
-0.47221363 5.8984947 1.3914287
0.7964207 6.4835014 0.64117646
-0.1334396 7.9836407 0.28152788
-1.8813937 4.5970135 0.37523103
2.2958632 7.8355217 0.9870665
1.9130424 8.630623 1.081222
1.3660614 3.7903066 1.2316849
-0.22905335 11.8062725 -0.6224488
-1.6915138 9.902164 0.7170563
0.07076891 5.595682 0.7684392
1.2182825 1.5567527 0.018422548
-0.31728476 2.8880906 0.783865
-1.023485 0.6007521 0.89937246
1.4718187 7.2340555 0.5088229
-3.7404633 6.0379076 -1.5424573
-3.4344368 6.2386665 -0.5045533
2.9001527 4.0234985 -1.151016
1.9669793 1.3621664 0.7491343
-0.4733017 3.5983143 0.4903382
-0.6267382 9.024923 -0.33126307
0.71589184 7.2531157 1.586992
-0.3419578 12.073303 0.36661327
-0.06352197 12.132973 0.07204531
0.6800679 5.8919544 1.2571464
-2.056139 -1.2961285 1.4331067
-0.19819123 6.721301 0.8768712
-0.087007314 8.220821 -0.023702126
-4.1543207 5.964899 -0.7860215
-0.6432357 8.8515 1.5531714
0.036924295 5.856036 0.036320917
-0.90953887 9.154663 0.72175634
-1.2236557 7.9915543 0.103109986
-1.6139731 0.4119727 1.0609717
-1.7554684 4.5611687 -0.011604227
0.06440857 8.727415 0.47416264
0.50294816 12.62557 -0.21006836
-3.5394297 5.658063 -1.52356
-0.742334 5.3986673 -0.18931049
-1.7662523 1.2370594 1.2539141
-1.6658626 2.830608 0.35926527
-3.4044962 8.999226 1.1745005
1.2616498 4.956815 1.308723
0.38559222 10.337484 0.38519257
1.7947392 10.463062 0.5155499
-4.290552 8.202806 1.1456032
-0.9446515 4.9300613 0.7702254
0.914701 10.100227 -0.041538887
-1.9771338 -1.5058346 0.7178198
1.3370886 6.607606 0.09945738
1.0912347 10.764042 0.42821538
0.6026627 8.257809 0.42815518
1.3570261 3.4080257 1.178832
1.6258664 3.1739388 0.9936447
-0.16419631 8.374332 0.797572
-3.1707277 6.7468977 -1.8303609
-2.1243453 1.6401026 0.38070703
-2.8139267 -4.5392284 -0.7186054
-0.76266 9.185919 1.4731963
-2.0019717 -2.8039322 1.3021815
1.0398266 10.132923 1.2156439
-2.0000567 3.8386235 0.38550287
-0.52238595 12.689718 0.9683652
1.0565021 0.31943744 0.7897117
-2.0050035 -3.992673 0.76150906
1.5353739 4.780298 -0.17074594
-4.906245 7.4600267 0.48102856
-2.0282707 1.2821064 0.21131605
-1.3682251 3.1502833 0.75780964
0.67545164 4.675473 1.7106187
-0.6936909 3.3812037 1.3442602
-2.2023673 -0.11995943 0.972543
-0.49829066 8.621389 1.3149195
2.3260283 8.875739 0.90299714
1.0309303 5.107252 -0.43909526
-1.2487185 6.7267923 0.57934964
-0.21205595 13.638784 0.021853091
1.1829352 4.236479 0.8849838
0.10079342 5.5755606 -0.65749097
-1.4631786 2.7543721 0.72455883
1.2191272 4.9641542 0.907104
1.519325 10.173431 0.39031166
-0.61985075 5.4868927 0.43898463
0.85051095 8.788565 1.1358945
-1.7886252 8.501812 0.015739243
-1.0689561 8.395296 0.7129313
-0.4043572 2.1507683 0.48827028
-1.1573646 5.4629793 -0.06737338
0.41654938 2.924842 0.57025456
-0.56771743 6.340354 0.33493775
1.4606521 9.078041 0.5975226
0.34478182 3.6315885 1.4759772
0.48031843 10.021322 0.5886744
0.019875295 7.349677 0.7283678
-0.12515378 7.953951 0.9922302
-1.9008982 -0.92080617 1.5300882
-1.0234656 0.21672073 0.49317825
-0.011819832 11.337104 -0.28720254
-0.8899009 3.4664016 0.62923086
2.7259321 4.7896147 -0.23158884
-4.026269 6.7357044 -0.4511671
0.27594608 9.948582 0.9346024
-1.4192085 5.2319317 -0.33433765
1.4705341 9.768063 0.3487953
0.568282 6.076792 0.9353348
0.772913 5.4623737 1.211966
-1.0120387 10.28133 0.8298192
1.355336 -0.7832091 0.15297583
-2.1137786 -4.6046247 0.9922377
-0.39297265 12.8869095 0.61834526
-0.91514575 6.588979 -0.38234758
0.19440052 5.144867 -0.6957425
0.7236656 1.0518794 0.52387285
0.15088576 8.542822 -0.39955598
-1.4210167 2.0839715 -0.32042855
1.3647203 4.937766 0.52463186
0.19882907 6.5171547 0.29247403
0.2732324 9.055141 0.46173322
0.47011173 5.9608583 -0.12922066
2.112331 1.9221842 0.31170464
-4.4883986 5.5659437 -1.1364202
1.9348838 1.0522978 1.0039377
2.6042542 4.913204 -0.5487956
0.15844393 4.2500515 1.1341429
0.37367535 9.208195 0.05493723
0.96599627 -0.739663 0.46341115
0.40358996 13.254311 0.0075159287
2.0789232 -4.1592045 1.0610371
-0.7328929 2.3592591 1.2644522
0.7739198 7.077857 1.2338324
2.7042685 5.8928785 0.5634477
-0.499824 2.2450829 0.8705199
-0.8813369 2.4612188 0.9501947
0.9914297 4.855999 -0.09656951
-0.91846216 8.588587 1.4465866
1.0514848 9.59683 0.22573146
-0.14831838 8.036188 1.5543938
-3.1166387 6.3142624 -0.24781248
0.16556555 12.608812 0.82355535
-0.031938434 8.62342 0.0055981483
1.1275854 3.8173394 0.6142565
1.2959832 5.720051 0.061720677
-1.7688148 0.2983486 0.63237536
-1.0261838 7.3548136 0.46609688
0.5836762 4.4382963 -0.58024037
-0.54609454 10.106262 0.9374882
-1.7610867 2.405209 0.50906026
1.0777204 2.2606373 1.2258999
1.2546661 0.22037113 -0.03868533
2.917974 6.126919 0.39165694
-2.205577 -0.15796757 0.5056678
-2.142797 2.4616456 0.5480453
1.3875053 1.4541388 0.76968527
-1.0291114 4.039604 1.5222414
0.74336827 3.6904278 0.08154674
-0.406223 3.782494 -0.6166657
0.028094873 13.443033 -0.53453314
-0.5866326 3.062436 -0.03352274
1.7872205 -1.029712 1.32955
-4.516576 7.8419247 1.0111959
-2.0400505 -2.1062202 1.3646836
-1.4745438 6.035923 -0.15505227
0.10595262 3.7690744 -0.5254996
1.3807986 8.78223 0.2543221
-1.4057064 4.781008 0.65838563
2.0925236 -1.3886831 0.52674747
1.2645738 6.66479 1.121253
-1.6089242 3.9408832 0.3331265
-1.7852056 9.105488 0.9670267
1.5996611 9.897345 0.027937433
-0.5125891 8.130833 0.9583874
0.26017958 9.23807 1.1209774
-4.2060595 6.966666 -1.8346031
0.70937526 3.5123687 1.4544091
-1.2612824 9.57646 -0.14641693
2.162159 -2.2358685 0.6563566
0.56015 2.4923635 0.11006206
-4.10246 6.2790346 -0.48552042
-0.032785423 4.6751204 -0.009532549
-1.2017274 10.157036 1.2604674
0.13935646 7.6552305 0.3085181
0.5066049 12.5281315 0.17480686
0.5193144 7.2394495 -0.054563437
1.8003283 4.042341 0.75798106
-4.0838633 6.812952 -1.5729814
1.3094187 2.281005 0.24708796
-0.8800652 12.989059 0.665895
-1.4020855 10.132999 0.77241516
-3.7812347 6.0623274 -0.55563736
-1.4226174 2.2800727 1.1969447
-1.0128896 3.0730743 0.62863886
-0.38919812 11.406708 0.49519795
1.3549061 6.242817 1.0030797
-0.26912427 13.164333 -0.36840975
1.0010455 9.348719 -0.20476794
1.0518494 1.6099544 0.920082
0.9943656 5.0750303 0.36974275
-1.3854895 1.9062037 1.2359939
-0.5871378 3.4843354 0.96290696
0.98129666 4.620716 1.0708842
0.7881237 1.6385784 0.50401163
-1.7618463 3.092383 0.71789193
0.85484743 5.346736 0.63508356
1.0206006 10.6966 0.8104334
-4.4139147 7.3003263 0.75110424
-2.1903696 2.0421758 0.5105306
-0.8173858 4.537178 0.88947475
-1.0422225 7.7591352 0.44961113
1.07499 6.8291464 -0.076901674
-1.5011508 4.486377 -0.33872277
0.5572928 9.505409 -0.25998747
1.3766026 7.6810427 1.1129947
1.6803246 0.56743884 0.34294593
-0.46263403 5.4235077 1.7554111
-1.853863 -0.89993906 0.6270453
0.15362643 4.526392 0.36942926
0.6467321 8.580093 0.06681658
0.34792787 8.806911 0.10509218
0.4076178 7.1913013 1.3677187
-0.3467052 6.0082607 0.09242709
-0.47258663 9.552328 0.06135776
1.503581 7.6079273 0.6588726
0.6070113 2.6949487 0.8997843
0.4169882 5.162594 -0.16846624
-0.41704437 8.837223 -0.060659766
-1.3054852 2.717104 -0.044512145
1.159255 6.569866 0.730726
-0.6996019 5.685423 0.78765666
-1.0864584 5.921668 -0.21226844
0.26024705 7.4199753 1.7396162
0.48427844 9.239382 1.5186613
1.3038182 8.070171 1.2075236
0.7995931 9.792484 0.59707165
-0.17900723 12.174608 -0.7228861
1.6206965 0.35641605 -0.30082536
-1.0409393 8.473284 -0.2938537
0.34165424 9.613348 0.07602207
-4.3225346 6.657323 -0.98634446
-1.9064829 9.752417 0.37025982
-0.3721103 9.909519 0.5771848
-0.6685419 7.831272 -0.30368674
0.9177854 8.859034 -0.2706182
-0.2079145 12.446836 -0.1458976
-0.18905747 4.903326 1.0928166
0.039939955 7.265647 1.3138835
-0.2823423 4.498108 -0.70194685
-1.9170492 -4.6150875 1.4128478
-2.0222726 9.548401 0.07849327
-0.15888664 13.162413 0.8657733
-0.6122283 2.6875267 0.10176264
-1.1604722 4.2674713 -0.13728344
-1.1580608 10.758522 0.28216213
-3.538519 5.938119 -1.2155516
-1.636692 3.6840978 -0.29243386
-2.369131 9.092825 0.58665997
1.5054045 9.734932 0.8303702
-0.73378843 7.0536633 0.37073404
-1.372081 2.502141 0.408772
0.594545 3.2667131 0.20490941
0.25760555 2.763825 0.90492487
0.7991066 6.093196 0.6347678
-0.882041 4.079194 0.09671907
-1.1715043 8.872187 0.517277
-0.868992 12.987511 -0.4112593
-1.2809131 0.89208245 0.4830234
-1.0343065 5.0308704 -0.12823352
1.7026336 4.6012096 0.1200356
-1.5613174 0.25310236 -0.16664553
-4.066082 6.6123457 -0.055740103
1.4028332 6.401595 0.42393976
-0.35085422 4.825139 1.444793
0.58414304 1.3714073 0.7438271
0.11651373 3.4783974 1.1624029
-1.0348365 7.628708 -0.24330884
0.5331615 10.3054695 0.84235454
-2.8006642 6.3057356 -1.281961
0.2798643 5.4986496 0.07727394
0.7020006 10.931805 0.5380312
1.2604368 2.645206 -0.48282778
2.0822206 -0.041151717 0.14052051
-0.8859693 0.9351257 0.65980506
-1.6037908 2.8911653 -0.32839876
1.7499173 -0.76076484 -0.037132226
-3.436246 9.023008 0.8431814
-0.8229629 12.269106 -0.512789
-0.97915435 8.140356 1.0138135
0.58833265 8.006109 1.5674584
-0.8414674 2.6680026 -0.2502541
-0.48639536 1.7912729 0.32615054
-4.384322 8.083637 0.7704878
-2.1614385 0.18154731 0.67915213
-2.7476263 6.5722036 -0.9360939
0.13008967 11.937382 0.3773407
0.8640747 9.437664 1.4148638
2.760274 5.885844 0.17976144
-0.44047463 7.683216 0.900031
0.61091506 5.8167505 1.7095213
-0.9223943 13.260902 -0.17272419
0.028519519 7.2490396 0.32712698
-0.9091375 3.0121121 1.3527012
0.23858169 2.5309458 -0.12285687
1.8911383 1.4937274 -0.1318382
-0.34658605 5.2953215 -0.25559974
-1.4492853 7.8521957 -0.17336631
-1.7345679 -1.9632933 1.2261882
-3.6578646 6.0970488 -1.9392054
1.9426644 9.151005 0.20325407
-0.21188971 5.797577 -0.64171576
-3.751645 6.490238 -0.66465306
0.756678 3.9479284 0.4185779
1.3458233 5.334566 0.31432164
2.169187 9.620846 0.87551177
2.810945 -4.7919254 1.6759713
1.8638463 -2.1309185 1.1461585
0.29075962 7.0413256 1.7724905
0.5147476 8.850826 1.537549
1.5525279 2.9171424 -0.42698747
2.2119365 -3.0991626 0.77386594
-1.7344837 1.5486741 0.33042955
-4.609478 6.236412 -1.4326124
-1.1539257 7.3917875 1.3322783
-1.2688594 0.21134117 1.2113724
0.027151909 12.243059 0.79103756
-3.3489275 6.2718124 -1.4067323
1.7993453 9.513609 0.15895313
-1.0572941 7.359581 0.87715685
-0.3054471 11.753258 0.1707302
-1.2223294 0.22568539 0.13295546
-3.5917072 6.643961 -1.2266355
2.8931675 6.5619354 0.93661535
1.3054636 1.8124666 -0.39268792
-3.341827 8.543425 1.0027218
-1.4709015 8.637167 0.24669051
0.28314322 2.449175 0.6947701
0.58036053 6.295946 1.2815895
-0.86443925 3.695794 1.5153747
0.16934738 8.4374695 1.3198402
-1.0096757 1.7639492 0.6084713
2.0789318 0.7191973 0.21702167
1.0524379 6.899029 1.4139917
2.4153705 8.517904 0.99859214
-1.4320724 9.312063 1.1893325
0.6716746 10.68697 0.23421583
-1.3025224 7.136359 0.6528647
-0.78877854 8.748043 0.7105801
-1.6026702 3.2223997 0.38172263
-1.1313837 6.9889097 0.29242706
2.6278124 -4.0462313 0.21518049
0.43677568 7.0057573 -0.41933566
2.2545495 -1.0677984 0.6364294
-2.672728 -4.3008127 0.66134775
-0.32082754 8.729948 0.6727396
-0.73676777 2.8672419 0.8635794
-1.948163 -3.9772224 1.2150071
-2.1082153 8.852058 0.8497734
-0.73172665 2.7166448 1.2914705
2.1407194 -3.2433038 1.1139491
0.33343273 3.5875816 0.10395037
0.90767515 2.431025 -0.4353342
1.6955931 1.3443658 1.07393
0.5252774 9.43763 0.423611
-0.24789286 4.4551554 0.2996493
-1.6210539 4.9854774 0.9451486
-1.2756882 0.9007982 0.8645805
2.730609 -4.637862 -0.15607056
-0.19474477 3.3290448 0.58081055
0.44112223 3.7876477 -0.26651114
-3.4180994 7.390093 -0.5859443
-1.7015882 -0.3863104 1.5118253
0.22653589 8.372036 0.23801506
-1.1141634 4.9018755 0.3817451
0.37121856 12.192705 0.21823454
-3.207373 9.318531 0.95148873
1.0031421 1.2960424 0.6405904
1.4026484 0.5803578 0.706699
0.8307686 10.470938 1.0755711
2.16712 -0.027523063 0.5492666
-4.19722 6.2051554 -0.13122237
-0.49409664 4.0926943 0.41000748
2.0572805 2.3023992 0.23897985
-1.8197501 10.305843 0.954558
0.2746634 6.098692 0.27152395
0.8214165 5.4960213 -0.5130639
0.8961867 4.8891745 0.72300005
-1.0358112 12.734581 0.40365115
0.87906396 6.763297 0.980952
-0.3604977 9.206831 1.4768844
-3.6079555 5.716486 -0.410092
-0.836339 4.2540817 0.50479794
1.663485 -1.4329903 1.2385969
0.1711081 6.6430864 1.0319047
1.4911528 3.8934302 0.07263087
-1.5061681 9.647039 0.446702
-3.8795652 5.5916395 -1.3882151
-0.582003 12.414595 -0.21675175
-1.7063856 0.6237813 -0.20244727
-0.7675457 8.892799 1.1162716
0.19066098 3.500721 0.77917075
0.19696188 8.22291 0.9909022
-4.238929 6.931141 -1.2220447
0.06796178 7.286185 -0.44259316
0.4337418 3.6629543 0.41919297
-0.9663198 7.325635 0.032831676
1.8555217 9.825676 1.0549619
0.42268878 7.3509846 0.28872162
-0.45411098 12.089565 -0.47120342
-1.1179624 2.8200212 0.9526919
-3.994863 5.65287 -0.53952205
-2.846363 6.8833704 -0.65538454
0.8854437 4.7074146 -0.5686132
1.819041 -0.8305582 0.92060614
-1.0352914 3.6631398 0.13653731
-1.0504401 5.241102 -0.43400455
-4.3713083 5.9115744 -1.1119335
-0.27650487 3.9250755 0.66705406
-0.8339585 13.341038 0.16339007
0.6803808 9.062527 0.41164124
-1.8314083 -0.47297323 0.48183805
0.9639138 5.908704 0.9796159
-3.2515793 5.6502905 -1.1199481
0.8956634 -0.31484258 0.40210402
1.210314 9.05142 -0.061520353
-1.2552819 3.6964254 0.41589105
-0.031367354 12.704472 0.5377592
-3.1673236 6.368395 -0.7828834
-1.0118818 12.893906 -0.021793526
0.26004678 11.945892 -0.08857152
-1.1273382 -0.11853452 0.7179539
0.7748476 5.240388 -0.18984467
-2.3278422 -3.8989615 1.0995493
0.83858156 4.0280533 0.77276087
1.0946348 5.3013077 1.4029732
1.4847896 10.030699 1.1219501
-1.3318481 2.2911077 0.0072018537
-1.9131172 1.5235288 -0.035460487
2.2814193 -1.6602027 1.1249938
0.79620194 0.3462338 0.4430008
0.1967076 11.886505 -0.74569273
2.370965 -3.6412 0.6149348
1.5560167 -0.062899694 -0.20590258
-0.27855384 7.9949465 -0.41286606
1.8490748 -0.2321589 0.5544454
-1.0307503 1.9904325 -0.31688267
0.20897457 6.4433413 1.4367256
-1.3858893 5.6292267 -0.28235853
-0.9936737 9.297516 -0.22206658
-0.6585362 1.5203123 0.13097793
-4.0612364 7.2800093 -1.5949299
0.9163593 1.213675 -0.18434823
1.6355777 5.054921 0.10768528
-1.1633148 1.908885 0.07749131
0.27057534 4.6932554 1.7962909
2.7587843 5.176194 -0.3062031
2.7852097 5.555318 -0.06261565
2.6478863 6.28986 0.4490295
0.29729944 4.1660566 -0.6424005
1.1604989 5.5205765 -0.29836994
-0.7843977 10.755711 0.14146313
1.2238064 3.297008 -0.19206315
-0.571792 6.443016 -0.50125444
-3.3108344 6.664091 -1.5109813
-0.4695763 2.1091013 0.06596616
-1.2948599 5.945549 0.5428746
1.8489506 0.6960546 -0.1218161
1.4224012 2.005937 1.1517544
-0.6207465 8.415643 1.618063
-1.0628884 5.0400867 1.507699
-1.2438331 2.4151578 0.84408844
-1.6852376 7.2368097 0.041076683
-1.5857885 4.8870316 -0.1696639
0.86801076 2.209972 0.04400999
-2.059103 8.4406395 0.7482991
1.2673087 3.0186324 1.0691862
2.6158757 -4.589343 0.27070683
-0.5932164 9.435547 -0.28698772
0.46987063 9.631929 0.7759471
2.0214534 0.2657541 1.15222
2.0865335 8.530357 1.3786433
-1.5896277 6.51488 0.34784305
-0.27653384 11.386414 0.061890036
-2.9214668 5.923481 -1.2014291
-3.7332888 8.74803 0.9719721
-0.82917404 1.6529372 0.9398335
-0.16869599 6.4692936 -0.28445047
-0.8159474 4.676461 0.51073575
0.07025938 13.104502 -0.68942726
-1.4983697 -0.38409382 0.7985352
-2.964642 6.1062956 -0.5376407
-1.0134497 9.520832 0.99719894
-0.81909263 1.94786 0.31451666
-1.1258738 0.8891634 -0.075429246
-3.7896066 6.2786245 -1.2576778
-1.3434677 0.40919685 0.788195
2.5712314 7.957299 1.4003022
1.6911767 -0.8019463 0.4075743
0.83114743 6.1460037 1.5276582
-0.24936852 11.399464 -0.5861316
-0.60880613 5.8378 -0.21935603
-1.8979435 7.9215994 0.34071898
-0.7937455 4.8350525 0.12128876
-1.3843093 6.1654196 1.020525
1.4424472 7.3053694 0.97436607
-2.1277227 1.2659843 1.0415401
-3.0146198 6.1137495 -1.5765722
-0.5738872 13.127472 -0.11131419
-3.3037214 6.763342 -0.12862113
1.1998038 -0.46733242 0.23143038
1.2329853 5.624584 1.2291398
0.8525158 3.1502485 -0.19027102
-1.820446 8.664593 0.46961635
-3.6662593 8.420803 0.78982294
0.2277636 3.2851348 0.40247232
-1.7164726 9.37224 0.7113565
1.0584874 9.099382 0.66987956
0.44732118 6.5797577 -0.47785157
1.2656138 10.386213 1.0003669
-1.1318784 -0.14028725 0.33917397
-2.3271513 -4.586728 0.27629358
-0.92044806 6.5168524 1.4711549
1.573241 2.6498241 -0.040226407
-0.47890264 4.6477146 -0.37831736
1.5610785 0.77151096 -0.33223593
0.26977652 11.004442 0.65572953
1.6356521 1.6295395 -0.35417306
1.5039413 -1.4061766 0.90241945
2.2962856 -4.293249 0.2682649
1.8723698 0.05645509 -0.1501289
0.6715609 4.527034 0.058675595
-3.2394767 7.141594 -1.6427312
-0.4549082 7.9879475 -0.004977662
0.20298943 8.242331 1.6778438
-0.3989668 3.8486552 1.0845437
-0.9389981 2.2744608 0.013507165
1.7561588 0.7878108 0.75185466
0.63154066 7.62675 1.5894885
1.7703147 4.8466816 0.41144294
1.4544919 2.3804808 1.0219162
-0.1897389 7.3298235 -0.112590894
-4.2444077 6.269327 -1.1559637
-2.7059245 -4.2147083 0.2872336
1.7945919 2.8924208 0.7494099
-2.0091004 -4.2890625 1.540221
-2.9720273 6.912674 -1.5012169
-1.1655641 -0.67512083 0.91906345
-0.81011796 3.3464603 0.24789959
-1.4503915 -0.38382584 0.33800173
0.5694268 6.695731 1.2687764
-1.7995791 4.983309 0.18489951
-4.284232 6.575364 -0.64415
0.93427527 2.5466528 0.25305808
-1.2232165 4.4024563 1.0349672
-0.18277457 4.9560575 -0.364958
-0.75182605 11.889088 -0.3122211
1.6080501 3.2759247 0.38878524
-1.3707049 7.450467 -0.2400575
-0.7366475 1.2191551 0.3854372
-0.9710462 5.2675533 0.21725947
-0.94695294 6.9161396 0.7350075
2.634789 7.7083035 1.0441737
-0.20725524 5.3031473 -0.6717632
0.07887943 9.38406 0.35799432
-3.9090247 5.910816 -0.20060365
-0.5276408 12.739553 -0.88075995
-1.3530254 1.5318849 0.086255476
-1.010992 2.6237316 0.17437568
-0.50795937 5.5885725 -0.5496956
-5.032934 6.028446 -1.114402
2.3331342 -2.8343043 0.99609256
-1.5618391 4.5922823 1.1098988
-1.9979997 1.9000025 0.10831623
-0.64518774 12.324543 -0.89618397
-0.6015465 5.771723 1.7180567
-0.89360285 9.547398 0.1351752
-0.3000819 5.860038 0.71738005
-0.063256636 6.85408 0.21063933
-1.3163376 9.209486 0.85060716
-1.5102837 2.4994102 -0.34495384
1.8959687 -2.421359 0.90392756
2.0986667 -2.4963927 1.1910446
-4.8775473 6.255556 -0.7203859
0.85296476 3.9510617 -0.22592205
-0.9292085 6.158267 0.4533443
0.8016417 7.1002274 -0.24277374
-0.8446202 9.72806 -0.19390713
-0.52996564 9.891109 1.3304751
0.53275704 4.0174065 0.088560864
-0.85417426 6.1853523 -0.40590197
1.0150664 5.257167 0.9948269
0.7559583 10.183483 0.35680324
0.7616941 7.015011 0.184704
0.89817286 0.059005305 0.27894384
-3.4029193 7.4076624 -1.3290133
1.1954525 3.7203665 -0.1737741
-1.039881 8.066278 -0.23093942
0.58172345 2.2863822 -0.24313134
-0.6912875 11.112364 -0.03254823
-1.4512153 5.416197 1.0837264
-0.62364817 8.233591 -0.34295845
0.1958031 9.66791 -0.26085407
0.15060323 12.720003 -0.82871664
-2.1804185 -0.41467863 0.21306229
-0.09059556 4.261299 -0.01864734
-4.232789 7.402399 -0.78729236
1.6140535 -0.14659008 0.8898901
1.9674098 0.3613242 0.05726296
-0.045853972 3.7928834 1.2671008
2.2114673 0.97794056 0.7680054
2.2201223 1.1435366 0.4098543
1.3379257 10.221748 0.055881858
-0.22092065 5.680872 0.38493383
-0.62910616 8.625959 -0.36208028
-0.65928316 3.821239 0.77130747
-0.42576116 3.136693 -0.43928385
-1.2475059 6.491663 1.2490401
2.5642939 7.021721 0.9028065
-0.8926985 12.388325 0.52324617
-0.73247623 13.292038 0.5572324
-0.13568509 4.113 -0.63991904
0.52208626 2.662827 -0.3644815
1.1472902 2.1641817 0.8696383
1.3733711 5.129098 -0.22518992
3.089767 -4.5832205 -0.18118197
-0.45759648 3.727199 1.4425159
-1.0076079 3.591477 1.092257
1.2136655 4.2342434 1.32899
-0.7295661 9.725004 0.4591691
0.3525095 6.9354734 0.2753954
0.51079 8.676395 0.4656847
-1.2681255 3.7478647 1.4059627
-0.75985825 2.0166402 1.0770874
0.38268524 7.3820877 0.9885961
0.8734889 9.540121 0.9913728
0.6212748 5.6227446 0.8935895
-0.7224426 2.2432451 -0.27456826
-0.70043266 9.557823 1.4227948
1.5380743 4.866007 1.016026
0.10321787 6.4684486 -0.59979343
1.639847 9.189192 1.1937046
1.0569036 3.5833464 1.3395836
-4.266101 5.8771524 -0.39748704
-2.0407133 -0.73853195 0.15156186
-2.1911511 -1.7188432 1.2818975
-0.19718277 6.4934616 1.6867049
0.7879113 6.6905584 -0.3512562
1.9171724 3.1217408 0.09089567
-1.8247862 3.8281436 0.75756824
0.88450456 8.402466 1.0959656
-1.4172311 10.418446 1.0581517
-2.139903 -3.5534973 1.245892
2.3264227 -1.9368155 0.82279694
-2.984716 -4.58671 -0.36248612
0.85462844 4.2755165 1.5380886
-1.8832371 2.6984997 0.7832563
2.0562778 2.2288527 0.6540185
-0.032625236 9.69084 0.68105054
0.5344454 6.48954 0.93813777
0.87629986 8.613113 1.4797232
-1.8831646 4.2148 0.18564218
-1.1563954 8.788101 0.902503
0.5407319 3.9193463 -0.64492273
1.5579798 4.412236 -0.21442863
-0.7187971 6.0868063 0.7649932
0.6023325 9.12702 -0.31480825
-0.4387563 3.270835 0.24438125
1.8793273 0.45956278 0.6499802
1.4190781 1.8237484 0.31119365
-3.6192675 7.3049994 -1.6471984
-0.49986964 4.487547 0.60410464
0.2787568 10.018562 0.17887425
1.7661264 4.19131 0.04868926
1.0618529 7.692397 -0.07939327
1.3266742 1.3714347 -0.35791254
0.07471123 11.655609 0.051005475
-4.4651585 7.1701164 -0.5894619
-3.0294828 -4.7919254 1.5414963
-1.7033155 10.325228 0.5615233
0.4837919 9.958574 -0.16224743
2.2516208 9.228331 0.97052276
2.1752086 -0.08509141 0.96923745
1.571742 1.4023459 0.04823354
2.5296278 8.116737 1.0393577
-2.0044994 8.057413 0.6595365
-0.23856473 11.024872 0.028484602
-0.07092956 9.886305 1.3296714
-1.1719098 8.260309 1.3529875
-0.11173618 6.112444 1.3985906
-2.6988358 9.699318 0.35715193
1.1449981 2.8647342 0.49108225
1.3813124 4.25124 0.17040235
1.2406089 1.2115765 1.0054979
-3.4404573 7.042901 -0.68963456
0.189792 5.0238094 1.0975387
-0.16219804 3.1329088 -0.16683877
-3.6033182 7.51756 -0.969715
-0.10045938 3.4616156 0.1696434
-0.1860596 13.253344 0.030738646
-1.132653 4.468012 -0.52689385
2.314189 -1.2140484 1.0125508
-0.7584989 9.801947 0.9521408
-4.2997084 6.9401674 -0.24423742
-2.0111837 -4.2905636 1.0658686
-0.5805056 6.5210094 1.727562
-1.8794305 -1.0360835 1.0835474
1.5550241 3.6695218 -0.36619127
-1.7280099 -1.7457237 0.9230319
2.0877666 -3.4675007 0.77480805
-2.57766 9.378483 1.0365076
1.1982596 1.987906 -0.030443437
0.07929273 7.056486 0.9745271
1.6716697 5.1148405 0.73962355
-3.005414 9.523878 0.5992029
-0.4644553 4.1315804 0.028034467
2.6934614 -4.1825056 0.8948138
1.0808339 4.250579 0.4805442
-0.061544143 7.575513 1.1031959
-1.6125424 3.057373 1.0743284
2.0249996 2.625504 0.5120642
1.5233016 4.0896626 1.0966039
0.849092 4.244031 1.1244226
0.0919179 4.626583 0.997345
-4.397155 6.539913 -0.22839057
2.7834845 4.6446037 -0.5817478
0.8048469 4.463625 0.7333511
-2.2327948 -0.4820131 1.1462398
-2.163065 0.5834465 0.48514432
0.04593944 5.3420086 0.4267438
-0.42754823 6.884013 1.7250507
2.4500113 7.3698444 1.1500759
2.5966578 -4.6065884 -0.6934345
-0.64169395 4.9815464 -0.24905625
-0.31332213 9.523331 0.4478848
-1.6458466 -0.7450359 0.22964999
-0.12685573 4.689475 1.793863
-3.1324773 8.810394 1.1873071
1.5829389 0.31886137 0.08010085
-2.6672068 -4.6122456 0.059804887
-2.5243711 -4.235982 1.0563071
-3.1433825 6.543415 -1.1559863
-1.5553899 3.5383148 0.1323731
-0.8838067 8.103086 1.4616168
-0.6413455 12.294106 0.8024105
-1.3732648 3.8955908 -0.013445543
1.8100035 1.2810695 0.35267448
-3.433257 6.4059114 -0.058092326
-2.9087381 9.5914955 0.94972193
0.05699771 3.05996 0.6902611
-4.0335684 7.9450455 0.9729272
-0.11041811 13.082584 0.39304549
-0.68257797 10.419056 -0.025951777
1.9528928 1.928448 -0.08203234
1.1467786 5.987197 -0.19233471
-1.2582159 4.684615 -0.049140148
-1.3587842 7.6052666 1.0461547
-1.7573802 9.33902 0.32528323
0.66804373 5.3570604 0.18931618
-4.4982996 6.7653713 -1.658721
0.5005789 8.638924 1.187999
0.8436905 3.300807 -0.568123
-0.98322654 8.559206 0.36724412
0.19389859 12.995703 0.72993445
1.2754583 7.5209103 0.2638154
-0.055631503 5.3954573 1.0982306
0.2903421 7.594144 1.3580434
-0.025958076 4.903014 0.35848153
-1.3807509 5.0443134 1.2505019
-0.8108088 5.86891 1.1637089
0.9426986 0.7007104 0.6505859
2.0945652 8.273878 1.0792999
0.3348208 4.515629 -0.2674421
0.9756799 3.2649179 1.1988223
1.709996 2.0952964 0.19092989
-0.9711726 5.152194 1.1349096
0.19013211 12.26013 -0.86690867
0.07444228 8.024971 0.62042844
1.9727285 3.0553346 0.45266253
-1.1401486 2.027532 0.89976156
0.49275112 3.102232 -0.4854176
0.07624143 5.700492 1.4361112
-0.29005516 11.690176 -0.22778466
2.861568 6.1890345 0.7579533
1.1702147 6.0122633 1.2878666
0.41069788 2.8297153 1.2540529
-0.68744063 8.91959 0.36434245
-0.31273425 10.209351 1.2408011
-1.360414 9.272526 0.51685596
-3.9866471 6.4123964 -1.6167755
-0.13784763 8.672119 1.1190722
-1.2503419 10.765045 0.91057956
-1.0024612 5.3252983 0.60344636
0.9694934 9.152542 1.0467441
-0.86588526 10.409195 0.3676064
-0.43613362 4.7968054 0.33518672
1.2956378 2.6779442 0.20084375
-1.5681219 4.220129 0.8938899
-0.14637211 6.5636415 1.2970655
-4.6601105 6.89157 -1.2297447
-1.3814378 -0.730374 0.51667726
1.6050808 5.726528 0.33436
-3.917365 7.0077677 -0.14427148
1.6240604 0.1519742 1.2010145
1.1764159 2.6202178 1.214077
0.18453237 8.672232 1.6410007
2.2687702 8.19207 0.76741755
-1.6911802 4.140729 -0.19581848
-1.3145823 4.679392 1.3918695
-1.5108123 5.779999 0.90116274
-3.2666492 7.3924437 -0.9677038
1.8757136 3.6920104 0.62279844
0.83605933 2.7903419 0.6484562
-0.7989665 8.252533 0.023160204
-4.212269 7.3896666 -1.2702372
0.67123497 3.0968652 0.9028251
0.5321392 3.333054 0.6624044
-2.0258365 2.6783981 0.23595855
-2.0965295 8.733196 0.19678092
0.066725254 6.4372473 0.68933856
1.6159394 1.1560206 0.707338
2.171091 9.386433 0.56570077
-2.4982939 8.904846 0.25215608
2.3180013 -0.68727577 0.485089
-0.50047004 12.794401 -0.36290574
0.34870934 12.4569435 -0.5663755
-0.3827524 4.550785 0.9848162
1.2376447 9.292368 1.318968
-0.8424939 6.2691984 1.1297245
0.15728828 7.0853367 -0.07289283
-5.3949194 6.4567776 -0.5757593
-0.34078097 12.09408 0.76167786
-0.14730927 7.2278805 1.6184227
1.3556421 7.013813 0.18607879
-0.3133489 7.2618437 0.97509205
2.210846 -2.0793738 1.1505263
-0.3566332 9.710865 0.99002767
1.4654453 4.0900755 0.49127275
-1.0059297 4.153144 0.8000426
1.1025019 9.172949 0.27491266
-0.08183974 11.9412155 -1.0156469
1.8430712 3.926269 0.3191725
-3.4050689 8.70702 0.68313193
-0.6165811 4.591278 1.3201065
-0.15721652 2.7639575 0.026799275
-1.7625544 5.377739 0.3486609
-0.28479916 13.577574 -0.34129
0.5505074 4.686021 0.479823
0.0052473242 9.016167 0.0644611
0.29454857 12.308218 -0.16824695
-0.5686244 6.0004406 -0.57545483
-0.8095101 6.4835224 0.71691775
1.4311855 10.5634 0.6911806
0.20364094 7.948409 -0.012955716
-0.05259852 5.454569 1.7694533
0.23265103 8.370604 0.600989
0.5948143 3.940055 1.5889375
-1.1016147 10.393961 0.022991754
-4.573988 7.483449 0.38150567
-3.1982903 5.8131924 -1.4503703
2.1819386 -4.3149595 1.4364374
-1.5191293 5.696705 0.121931724
-0.14114508 12.832544 0.953434
-1.5763028 1.8520837 0.0688657
1.2997904 4.886388 0.1521742
-3.967111 8.12521 1.3373904
2.1830215 9.00083 0.5809901
-1.0849459 3.3087702 -0.44935942
0.08009069 6.8781824 0.600091
-1.2431431 0.65407693 1.2199976
1.1929426 0.5561321 0.3808303
-0.21964589 11.000282 -0.36615545
-0.58076847 3.198615 0.67520964
0.84445643 6.5361233 0.01666797
0.21441132 6.2214556 1.0794892
0.807691 1.3596601 1.0240011
-0.6705818 7.211565 0.7471781
0.37590465 10.53175 1.1025243
1.3529391 6.106968 0.17918712
-1.7615457 8.10001 0.044928998
-0.63983893 9.308294 0.40768307
-2.0327077 -0.55827963 1.4630885
2.886592 6.955037 0.72652805
0.56996036 4.198084 -0.26156753
1.6604574 1.5851543 0.55644023
1.9111791 -1.1994641 0.91886544
-4.4791183 7.226413 -1.0546411
2.1522288 -2.6813135 0.7343538
0.16128853 13.443464 0.22142246
1.7316492 9.982962 0.6306455
-3.2424583 5.8886166 -0.4098846
0.051089503 5.0978956 0.0068860594
-1.7818913 -0.41291475 0.043798625
-0.06257421 4.5126514 -0.3674662
1.0045986 10.457296 0.15393348
-3.254562 6.937524 -1.12481
-1.370244 7.592061 0.6119436
-0.7593672 10.103823 -0.1616135
-0.3573857 9.188841 0.13886696
-0.5650455 8.159424 0.32923597
-3.038496 5.8380117 -0.8143892
2.3790207 -3.4549475 0.95730734
-0.9011197 6.6297827 0.36226737
-0.87115633 3.6974063 -0.54771316
1.3553736 10.106764 0.71987617
1.2333026 8.882994 1.3065782
0.060946427 13.352264 0.61433554
-4.6101875 6.493314 -1.1386046
0.31010687 8.43712 -0.1092567
0.93552804 8.762575 0.2874235
1.0066259 5.5269146 0.30974257
1.032913 6.7493467 0.3640288
1.3157372 0.2057409 0.38786858
-0.22475737 9.354197 0.85274875
-1.7877889 2.1765957 -0.17609888
-2.3384395 9.834589 0.58644414
-2.0706954 -1.9382849 0.77710116
1.8090544 9.259092 0.534026
-0.14780465 6.2936716 1.017041
-0.79216886 6.064185 0.068037465
1.8709667 0.103166535 0.831705
-0.59029007 1.5206532 0.5942359
0.06221033 7.685338 -0.43283212
-4.7843914 5.753196 -0.9978095
0.2007246 4.8837233 -0.35179168
-1.970032 3.4127316 0.50982046
1.613795 -0.31863016 1.2532966
0.5566354 8.468056 0.8362849
-1.6136625 5.317831 -0.00861296
-4.2297535 6.962841 -0.7533282
-0.52475476 6.7162004 1.3448334
1.7144301 1.7107427 0.9269395
-2.0089407 2.268087 0.8384255
-2.0276122 0.885051 1.1615732
-2.0945387 1.9305353 0.8940735
-1.1424749 7.801425 1.3469028
1.3673794 1.8665483 0.7580304
-1.6557999 -1.2361953 1.4422455
1.1143391 9.868034 0.9558723
-1.005758 1.5537877 0.28606856
-2.5984712 -4.6069336 0.91869533
-0.45584965 6.0612984 1.0421762
-0.25531226 2.4798975 0.6849482
-0.1325293 4.5192947 1.3026977
-0.78634083 8.680748 0.008575558
2.0199847 -4.606331 1.2358475
-1.4429772 1.247457 0.84232926
1.231863 -0.12545168 0.12474501
-3.979456 6.6060123 -1.2537646
2.056745 -1.3455498 1.2837417
2.3448086 -2.393979 0.9182198
-1.6005828 3.5757642 0.5558723
1.44731 10.567297 0.29159755
-4.333274 6.547328 -1.4117749
-0.6047882 9.341858 1.1040869
-5.2493954 6.4518795 -0.29190266
0.33231938 5.4213533 1.1069863
-0.4601657 4.931388 0.71901286
0.9840622 8.093212 0.50206125
-2.3159418 9.8176155 0.1790525
-2.672719 -4.348548 -0.2023617
-3.7520413 5.524708 -0.7639768
2.089024 -4.248312 0.6330005
-0.798216 3.044982 -0.38899595
-1.6242168 1.5560462 1.1083808
-0.23431394 12.861649 -0.063836604
-1.6506557 -1.2641203 0.8574712
0.043185733 6.181492 1.7291954
-2.5740042 8.960081 0.8998246
1.3708594 9.052252 0.9445931
1.1717834 9.732508 0.614514
-1.8674111 1.0167923 -0.058359645
0.26911354 5.2311707 0.7525035
-0.234537 5.2040586 1.4435441
-1.1732662 9.984592 -0.09155929
1.832273 3.3599296 -0.18239409
0.8817409 4.987651 1.5859408
-1.59851 7.3864527 0.854475
-4.311432 7.6973534 0.6762203
1.9829812 -1.5993373 0.9226285
-0.36211526 10.6084385 0.18263912
-0.6231487 3.4240885 -0.56026006
-0.18778113 11.029396 0.6801933
0.29780823 5.8075886 1.0620494
0.5843104 10.207817 1.276164
0.77108157 8.098291 0.8178344
-0.13574094 12.787998 -0.49946982
-0.04164943 4.124833 0.38038695
1.3753414 0.6812179 0.056469545
-0.3571396 4.3824368 1.5968754
1.6964347 5.305361 0.40956312
0.89443374 4.455271 -0.25721872
-0.43314296 12.063065 -0.07170272
-0.6454276 8.366799 0.668942
-3.0764356 8.733351 0.47068965
0.14959279 10.288431 -0.07942933
-0.8673465 12.16729 -0.08413611
0.11232459 10.959569 -0.080677
1.9288161 -1.7672966 1.2576723
-1.1235738 8.88991 0.10171364
-1.3290949 7.0967007 -0.09449796
-1.3091116 8.0643215 0.6807847
-0.3538813 13.340145 0.61432207
-0.5663837 8.016924 1.6388311
-0.47667038 11.243692 -0.3080349
0.023715395 6.2619934 0.03502384
-0.32522392 5.4091616 0.7122824
0.14753553 10.225027 1.2183719
0.33262217 10.64658 0.57203615
1.1301341 3.8348017 0.22137612
0.2857839 6.618085 1.7961557
-0.3252536 10.283346 -0.12802255
-3.7220306 7.2885084 -0.35527676
-0.20813465 6.585866 0.45829195
1.4253674 3.0532126 0.67096555
-0.5740359 8.547647 0.3509857
-1.5880601 6.935321 0.8010546
-1.0371583 1.782368 1.2535222
0.008831834 2.7276473 0.489505
-0.09597689 10.6299515 -0.105817154
-1.9265122 -1.4519541 1.0980263
-2.941441 6.495265 -1.6103511
-0.20266888 5.8227987 1.7544904
-0.5796578 4.1880045 0.8589083
0.8523264 3.5546107 -0.27846152
2.9593205 3.708754 -1.0011444
-1.853817 10.659294 0.4427157
0.3386966 4.7666016 0.07843311
-1.7872901 -0.6692369 1.1701031
1.7235076 10.281845 0.8830135
-3.0425258 7.201886 -0.7885165
0.9255266 10.169367 0.76926434
-0.36821586 10.787588 0.93212193
2.1287498 8.466558 0.3404342
0.69407606 4.946945 0.14739582
1.412364 4.545251 0.40995347
0.9151193 4.207967 0.11730069
0.33968133 7.59363 0.6250026
-2.1174016 9.141537 0.1535281
1.9741807 9.409473 1.1854255
0.81626725 7.4601526 0.1617333
0.8282335 7.9518414 -0.3140369
-0.008983372 11.23889 0.386397
-1.7315881 3.4537034 0.91995096
-2.8523645 -4.5976276 0.47455126
0.8286512 3.5676975 0.47852987
0.2540477 2.8561177 0.18381143
-0.75013626 7.5913963 0.6989169
0.3169561 12.42206 0.53290236
1.0445511 -0.0134695675 0.6311399
1.6373658 2.8593497 0.33768004
0.12067069 6.023594 -0.62172306
-2.7801857 6.686842 -1.2940235
-1.371285 8.272741 0.31212658
-2.26792 -3.6714153 0.75453305
-1.6837413 9.330816 -0.03789237
0.54527247 3.7464824 0.7733128
-3.97221 5.9115934 -1.1871679
-1.2707276 3.033877 1.2282653
0.9240663 3.5283928 0.8809018
-1.4314761 -1.0569134 1.1631541
-0.5221149 9.918367 0.15709934
0.36796457 3.2408776 1.3996181
-0.7468498 7.4649324 1.1202321
-3.3793426 5.61981 -0.73292756
1.6883543 -0.4620223 0.29038733
1.4992816 -0.43035924 -0.059835188
0.7467829 8.985584 0.023679648
-1.4689965 4.306424 0.104751244
1.2019796 3.416421 0.45765173
2.7579765 5.574668 0.28873634
-1.716727 1.7840564 -0.25197273
-1.4732952 3.089562 0.015769653
0.32305145 6.020074 1.437861
-2.1418424 -3.252396 0.9086784
1.295254 2.2190313 -0.451756
-2.8503065 8.630899 0.27238345
1.2803197 1.1175194 0.01779846
-0.19351643 6.0348997 -0.28879857
2.494307 6.971964 1.2928586
-0.23547575 6.2567177 -0.61534965
0.29927245 4.3189993 0.096928164
1.5328071 9.169514 0.19679585
-1.550216 6.533619 0.763857
-0.11032441 5.440442 0.055249766
-1.8419209 3.8373437 -0.009551855
-0.96605086 13.073509 0.30084884
-0.60036063 4.1043444 -0.64998746
0.48476255 6.1726093 -0.53319585
-3.0198739 -4.550646 0.06714198
0.6798459 9.927153 0.99779034
1.0633197 3.1617222 0.793702
-1.8349793 -2.4426951 1.2185199
-1.1614594 3.9801927 1.0960104
1.8795626 9.007597 0.87552214
-2.291057 10.483528 0.41174203
-0.9596237 9.829529 1.3605058
-0.27304983 6.4820795 0.08873212
-2.068452 8.331196 0.32030213
-1.1203511 8.977558 1.4014671
1.1726601 8.681395 0.91998947
-3.6464858 6.811601 -0.4239365
0.33006054 7.9899216 0.33487606
0.3410784 2.1315866 0.43400615
-1.5408711 -1.4925764 1.1857908
-1.2222116 10.216442 0.37583882
0.616873 9.244398 0.7952548
1.5639544 9.597519 1.2111619
-2.2137804 -0.8958771 1.2877548
2.359404 -4.589963 0.028807674
-0.91250205 12.603231 -0.25199097
-3.9787297 6.326583 -0.8986703
1.9068153 0.9260348 0.47620988
0.033234194 10.055168 0.52900124
1.201525 3.0842195 -0.54314363
2.7973108 7.192045 1.3537705
-0.19178805 4.07187 1.4664118
0.1097025 3.942144 0.81156075
-0.17029664 10.102753 0.17771965
1.240511 3.9482884 -0.54868186
0.42758352 5.865075 0.6271941
1.5622332 8.702356 0.7162641
1.3860583 9.467449 -0.0042279377
0.11786778 5.0881634 1.8270173
-0.68664 11.820433 0.099273235
2.9576254 3.9633946 -0.64768803
-0.7346399 1.8651779 -0.084641084
1.4356568 3.8779845 0.805683
-1.6616814 5.74911 0.5058824
1.823467 3.3367128 0.69918513
0.24089482 8.911064 -0.30684173
2.337203 8.587418 0.60864973
-0.16793728 8.836132 -0.35606915
-1.9252024 10.006424 0.07227571
1.6885226 2.443169 0.33401275
-1.719573 8.243059 0.8838806
-5.0160065 5.921727 -0.71643513
-1.4916053 4.7204313 0.287027
-0.7911849 12.119148 0.33792853
-2.1240716 10.487646 0.73165715
1.0242589 6.3386154 0.31134444
2.12702 -4.663821 1.6086607
-1.4309766 8.532133 0.64714205
0.80454504 7.9275403 0.13602793
0.49660593 4.13181 0.8598838
1.8619559 2.8649764 -0.2179833
1.047888 2.3970685 0.5505167
-0.28516513 5.57421 1.4141757
0.10357593 4.3896666 1.5676277
-1.4606555 8.900387 1.1093965
2.2616992 -0.77673256 0.8943548
1.8871121 -0.37211752 -0.0771343
0.6008785 9.093544 1.1688669
-2.3185768 -3.957457 0.41727972
-0.21553186 3.4843402 -0.44707882
-0.71087706 7.379755 -0.38222903
-4.099882 6.1298885 -1.8835621
-2.383667 -4.2215033 1.4372153
-0.25912553 3.8181715 0.17654404
