1.0495179 7.381995 1.2520685
1.918999 -1.0833447 0.60642695
-2.3499804 6.6995783 -1.5252054
-3.0143433 6.2150126 -2.3720102
-2.195055 9.658569 0.9680828
0.102162674 2.5598297 0.36726487
0.55846703 5.240282 1.0369315
1.4322975 3.4798026 0.13493109
1.7408788 4.375784 0.55315804
-0.9630556 4.7138557 1.7088535
0.05019454 5.199232 1.4935622
-2.0306454 9.499323 0.15460032
-1.3776374 9.098049 0.25918233
-0.22540063 7.6271896 -0.35443467
0.44697845 4.526823 1.0522652
2.1664715 -4.581422 0.9443121
-2.4015985 7.6421995 -3.250956
0.015053861 8.954884 0.9748101
-0.51794624 7.199501 0.05665019
0.51231694 6.7915335 1.6357853
1.1986971 10.005167 0.47706836
-0.5222261 2.6003013 1.0864236
-2.152082 -4.276312 0.6352725
-1.259341 7.616577 0.22522321
2.5095763 -4.24282 1.2291069
0.1459178 5.788622 -0.23130459
-1.4820466 -0.047148548 0.093931034
-3.5894237 6.698001 -2.2527843
-2.323895 -4.25257 0.15315127
0.39918828 12.147594 -0.38117027
1.1174853 6.975831 0.89526665
-0.21834266 4.160557 1.1032791
1.4833105 1.7952363 0.049590103
0.29479867 5.1231775 0.39485866
-0.37309754 3.4460464 1.2962708
-1.4136584 0.51239395 0.43485832
2.1325374 1.5274417 0.61532485
2.040784 9.065702 1.1081859
-1.5988181 7.8901367 0.8586906
-0.7181221 10.242607 1.3956559
2.850319 -4.2857723 0.03250449
0.13989824 9.976376 -0.041409258
-1.5051982 0.9463793 -0.242776
-0.10682042 5.116625 0.83840907
2.8494563 -4.540571 -0.89688456
-2.6346197 6.2156277 -2.4604225
-0.35435647 10.268616 0.43813652
-0.7769016 7.604351 1.6098254
-2.3426514 7.6664457 -2.7913666
1.9789443 1.8021181 0.8480365
-1.3331101 8.977465 0.84047925
-3.2516203 7.055951 -2.0769567
-3.615827 7.358262 -2.2649388
0.72503567 2.5593152 1.3609114
-1.216217 8.445133 0.14519343
0.49927306 4.233041 1.3695629
-0.51031613 11.678978 -0.33555984
1.0059423 1.0086446 0.41760308
1.4139996 -1.0985091 1.0998054
-0.094666556 12.62101 -0.7444444
-2.6934443 7.712472 -2.6726608
-0.48951495 10.742226 0.6955385
-0.16607678 12.727503 0.37453067
-3.6715446 7.3309736 -2.6923394
0.5600662 7.8440294 -0.1687066
0.92837024 4.652542 0.4185558
0.9996296 1.904721 1.3147953
-0.90318215 0.8771622 0.34543198
2.2158513 0.65785277 0.7434417
2.6383748 7.272606 0.93413174
-1.9840453 3.120626 0.20170367
1.1790543 2.8658938 -0.08236538
-1.4099836 10.065546 0.5220914
1.6042838 -1.7531285 0.97898614
0.22311088 7.7806187 1.0424416
-0.77370596 10.924528 1.0350807
-0.29089844 3.196154 1.0498137
-1.2122426 -0.42636395 0.573773
1.3819633 6.7452555 0.6137955
-1.6302812 7.44886 -2.5114582
1.6683509 9.394642 0.8459374
0.40837175 13.32979 -0.30249265
1.4010427 5.3023987 1.1379378
-1.2712402 10.5137005 0.78262055
-3.2670107 8.342701 0.8148954
-1.830425 4.990139 0.6363616
-0.923643 7.0600433 1.2018096
1.0764632 6.400363 -2.1446471
-0.074669436 2.9935012 0.34737056
-0.16828132 4.6925907 0.7569685
1.1087723 8.365583 0.35370424
-2.13306 6.728055 -2.495811
-1.8221769 -2.076365 0.93730414
-0.552832 12.818983 0.18848735
-1.1418641 1.3617132 1.0891194
-2.7825627 6.6146727 -2.3060603
-0.7178199 5.031252 1.4625771
1.2607043 0.41595972 1.2235072
1.9107764 10.028318 0.18802232
2.621901 -3.9102716 0.6152928
1.4656441 3.7559276 0.40489
-0.9225482 5.734521 0.21603346
1.3331409 1.3389637 0.48278224
1.5289319 -0.5305532 0.85248446
-0.079102054 5.8141947 1.1639674
1.5824885 5.9573746 0.66320753
1.8650279 8.911467 0.38457835
-1.4953659 -0.17931846 1.3838654
0.6697297 2.1780562 0.5613462
0.329745 4.8139496 -0.5971416
-0.586347 6.691474 0.6909313
-1.5772753 0.45582646 1.4962854
1.8250453 -1.5498786 0.702366
0.65708053 7.400833 1.3037276
-0.83421826 7.871376 0.130009
3.0025911 -4.583866 0.23030263
-1.0839767 9.858847 0.380997
-1.6201117 2.0999002 0.299249
-0.08469632 10.539282 1.2260902
0.6026896 1.9305613 -0.057257853
-1.3664496 5.63301 0.7437464
-0.2918468 7.0920086 0.37003797
0.47975743 1.4717433 0.43679887
0.7806567 10.535379 0.79988015
-1.3653216 1.7006965 0.888311
0.8948946 2.0637617 -0.25473088
-0.7734858 6.4976473 0.07110864
2.7386036 -4.37148 -0.40032035
0.18248773 4.015353 1.5611455
-0.33852524 6.99761 0.74529445
0.026967883 12.103611 -0.1615577
0.6273316 1.5328238 0.06412919
-0.48648638 6.261614 -0.13299116
-1.5867839 1.2038486 0.13342494
0.612947 12.995947 0.2934041
0.4637751 5.0439453 1.4288247
1.2547302 0.98574317 -0.2370446
0.6840781 10.365894 0.18995032
-0.04397604 13.574039 0.55312765
-1.697927 2.42348 0.93600404
-1.3996637 1.7940705 0.48184985
0.80124724 9.370388 0.23438886
-1.0994682 6.2935534 1.0554826
-2.4474397 6.9633503 -2.347733
-4.058893 6.932497 -0.80033326
0.43452823 5.481309 1.3979177
-1.085551 0.58215916 0.22685176
-2.2552743 6.9613028 -3.2776103
-0.49644268 6.767598 0.3037514
0.88932526 4.2166643 -0.48595613
-0.24922562 7.827526 1.3459063
1.1590018 8.6560955 -0.045269977
0.94148123 6.351244 -0.28092432
1.073627 4.5801153 1.5527813
-1.2314234 4.4345055 0.7448107
0.83164275 3.2147856 0.5774025
0.14232063 5.742738 0.4935193
0.090989724 4.177047 -0.2221843
0.41729802 6.321849 0.7366009
0.6145599 3.1047988 1.399544
-1.1774004 3.3814278 1.4738245
-1.2520895 3.4489336 -0.05071485
1.1648669 7.8056593 0.88214564
-0.02062571 3.6794796 0.5255817
-3.3101325 7.6298075 -1.7389896
0.22332555 7.7799196 1.7855921
0.48272985 5.5965176 -0.11076048
0.55445874 7.773671 1.2702675
0.18888703 13.555738 -0.024157023
-1.6882846 6.93497 -2.0237117
1.8486028 -0.13850796 1.391722
-0.4716609 6.1273355 1.8107367
-1.0783403 5.527918 1.0679369
-1.6047602 1.33511 -0.24772966
-1.2884331 9.503872 0.26306015
1.5909638 8.769032 1.1032593
-3.6261826 8.125912 0.7020923
-0.78445137 11.069942 0.58092964
0.69176805 4.6326056 1.3821013
-1.9993489 0.5850482 0.9031677
-0.5377215 5.609214 0.17711505
-1.1550267 5.899807 0.97388697
2.3260136 -1.55253 0.918152
-0.623363 1.8802288 0.79801977
-0.24408478 6.8963537 1.241878
-0.65884244 5.184307 0.19929254
-2.721387 7.8928022 -2.3549438
-0.6874341 7.4604893 0.39196503
-1.2035959 2.649055 1.3419802
-3.3761778 6.6801243 -1.8846235
-0.623904 9.529256 0.865693
0.16805851 10.369299 0.9318669
-1.7881677 4.608945 0.83340037
-0.2225936 7.1973724 -0.40517056
0.059776455 10.44713 0.45920813
-2.391922 6.591175 -2.1896749
-1.4438851 3.2530527 -0.3429839
-1.7317784 1.9765048 0.99836695
-2.266943 -0.7404673 0.9108207
-1.0314064 0.99881566 1.1606705
0.22189182 9.338053 0.8506739
-0.40879148 10.884317 -0.0012148335
0.6590408 7.6606846 0.18749088
0.14860302 13.143959 -0.13074192
-2.0903978 2.9173942 0.5169916
-2.4924273 8.122959 -2.7271504
-1.6368756 7.768278 0.07623413
-1.3011403 4.872098 -0.34669554
-0.4439175 12.4471035 0.33619583
1.2768292 3.4831715 0.95432174
-1.8795683 2.5052824 -0.14471394
-0.92071867 3.87396 0.52102506
1.2516046 5.6886616 0.56463945
-1.0179539 9.858316 0.76772964
-1.1709781 8.390436 1.1013558
0.16905919 3.3706727 -0.35433984
-0.4877109 13.592249 0.07841277
-1.0215254 5.7672224 1.59482
0.9114852 1.6510382 -0.18888849
-0.045778655 9.179014 1.3559322
-0.99916005 4.7188816 1.3069804
-1.734184 7.540882 0.6842476
1.143533 8.271921 0.8962395
-1.1792212 6.1469994 1.4387562
-0.924144 4.632249 -0.12893176
0.5553299 8.148674 1.2642202
0.231094 13.095026 0.24152708
-0.37193412 4.941059 0.06805451
-1.0914896 9.905474 1.1290231
-1.2553372 6.485962 0.5157956
0.84606564 9.750023 -0.014904534
1.5821209 3.2270222 -0.29083455
-1.4114461 8.258177 0.8054291
0.38547722 10.658573 0.28001916
0.61742365 1.1147332 0.2351104
-1.4243464 1.2052255 1.3033326
2.5047207 8.504791 1.0602353
-0.037454948 9.618219 -0.16300112
1.0801885 7.1785 0.53835726
-0.09186831 7.613163 1.6499498
2.1704245 -0.39467907 0.45024157
2.148213 -1.8247392 0.6695365
1.5196786 3.04851 0.07168445
-2.7041345 9.83836 0.51728904
-1.3757489 9.911568 0.10731228
-0.9786725 7.2818165 1.5326955
-0.81756294 3.8612127 1.2061675
-2.1261039 0.29798788 0.28324652
0.048814602 12.3773575 0.52558947
-0.012691593 9.759663 0.35056084
-3.867856 7.02767 -2.4621396
-1.5523818 0.08134848 0.9668803
-0.23816255 6.7645636 -0.47666466
-0.43465352 2.4507437 -0.053770892
-1.964189 0.22538996 1.0821617
0.26769185 7.5432215 0.037765287
-0.66943264 10.130453 0.72520447
-1.649956 0.8919593 1.1708846
-3.5912757 8.097645 0.29428524
1.1079934 6.989523 1.3021252
-0.47748142 11.884699 0.68521094
0.71598566 5.297387 1.7269683
-0.40545338 2.8209143 0.4612664
-1.783014 7.1931744 -1.7525823
-0.30734873 2.4691205 0.32200396
2.0733504 1.4967632 0.27844942
0.4157982 1.8725593 0.30185622
2.4364667 8.956369 0.97577286
-0.11435567 4.880844 -0.61645067
1.7360017 2.1161876 1.037395
-2.5574417 7.100518 -1.6653674
-4.096266 7.6478148 -0.28528827
-1.6824517 7.579898 0.36814028
-0.6526278 11.992973 -0.53127366
-0.9125615 10.658184 0.7583573
-1.3565001 -0.50816953 1.1669261
2.2665825 7.3236837 -0.13006842
1.6446433 0.4859755 1.1402285
-0.42881793 7.399828 0.67541194
1.200501 7.206669 -0.014491139
0.30999386 5.3555064 1.7753985
0.64746 8.125879 0.14759693
0.02553093 4.8182297 1.5145953
-2.015943 0.64885473 0.09296495
-1.1308022 2.2613635 1.3249307
-2.1795974 -1.1043038 0.8061
-1.0584223 3.736452 0.85649025
-0.31657815 8.0373745 0.7022803
-0.4397341 8.576034 1.034977
-1.6271143 10.635859 0.9637326
-2.318705 7.348382 -2.2632961
0.4014048 8.922827 0.9176762
2.0985322 -3.8919525 0.73772275
0.69966733 3.8569493 1.2249162
0.5127951 6.4024267 0.0052141286
-1.9429169 3.5094357 0.15037212
-4.083577 7.2795105 -0.19199982
-1.7274287 1.1147275 0.5025041
0.95276284 8.566954 0.6503416
0.9297533 5.636074 1.6267238
1.1578255 0.040578216 1.0520225
-1.0706418 3.0455651 0.025089234
-1.3360555 6.919771 1.1213105
-1.8580916 10.489151 0.33184975
-3.2500405 6.426531 -2.9356985
0.109887525 9.606251 1.1940422
-0.6776049 12.712885 -0.47770518
-1.5583861 0.8213984 0.17991418
-0.9406841 6.6674004 1.1759236
0.13655898 5.7680254 1.8541889
0.95738065 7.234805 1.5971797
2.2824907 7.0624695 0.21773762
1.3504817 -0.15811187 0.6089947
-0.14589387 11.617819 -0.8889458
-0.014462398 3.5759778 -0.073559985
-0.17078242 6.111437 0.45957857
0.35556608 7.149519 0.71806765
1.2419164 5.2790966 0.7258196
-2.0236354 8.64927 0.6167759
-0.4719299 13.107262 -0.5241302
-1.3670189 5.4967623 0.38874668
0.9310359 3.0225406 0.18381739
1.5187454 2.8161502 1.1147354
-0.49614143 7.6388607 0.05035188
0.5902096 13.083973 -0.08555756
-0.13794467 8.440643 1.6304443
-1.5107579 3.427085 1.2197337
1.2315257 9.810011 0.075000554
2.02626 -0.7389678 0.2945816
-0.8331944 6.9499197 0.095455304
-0.5482223 11.3906975 0.47199708
-2.0603108 9.499451 0.5245583
-2.8834057 9.032024 0.88953173
0.52019954 7.4286757 -0.24808937
0.98434174 7.7979937 1.2737379
-0.26505172 7.507869 0.3436907
-0.689052 4.8617935 1.0512648
1.0357435 5.2494974 0.077660084
-1.0628736 2.623056 0.5982652
-0.8761128 12.527004 0.24937826
-1.0338035 4.1097355 -0.4671033
1.2575691 3.1443396 0.3346123
0.4340201 1.8138905 0.6889781
0.7250569 7.599931 0.96066403
-4.046006 6.84869 -1.1668115
2.2655497 -3.937852 0.37277913
-1.7118418 7.148677 0.6297798
2.8591118 7.542574 0.7979039
-0.80036557 1.2564971 0.9265628
-2.4076986 -4.59377 1.2581911
1.526552 6.341236 0.8527144
-1.58286 -0.76854646 0.8511239
-0.31827062 12.511051 0.70133364
0.88235104 2.8800144 1.2152643
-3.734188 7.3248987 0.15549904
-1.6850944 8.923626 0.52285635
0.7475332 9.8532505 0.37567604
-2.1373668 10.280962 0.22181936
0.1476199 9.462198 1.5787404
-0.7874788 8.488432 1.1704743
-2.5617537 -3.9519033 0.74370015
-1.471015 6.444828 0.976576
1.5773337 5.5241632 0.8011706
0.07258329 10.863588 0.46550196
-0.8376479 3.4661741 -0.11111234
0.5100337 2.5826945 0.61314225
-1.8071449 -1.5289738 1.4668574
-0.22140068 13.439644 -0.53620064
2.0668044 10.216267 0.4813155
-1.00646 5.7519217 0.6146424
1.0603247 0.74594355 1.1445498
0.22015905 4.828412 0.7547741
-1.4115274 7.9705667 1.1831138
-3.8998299 7.198036 -0.8562261
1.6092136 0.9298606 0.18305579
-0.17639342 8.785374 0.38101822
0.36940557 2.4445872 1.2001817
-1.0050201 9.168697 1.1973264
0.0991468 3.93114 0.13788283
-0.6823226 5.288042 -0.4464305
-1.8951678 9.867256 1.1074255
-0.15073705 8.247322 1.2791858
-0.7736906 4.2656193 -0.18912444
0.23723719 12.731306 0.38064778
2.7946463 7.4513016 0.3544821
-2.1199222 -0.035698056 0.07460208
0.9142933 8.064049 1.5793879
0.68015444 2.8797016 0.39249158
0.4535671 5.5118923 0.6230078
-0.58839464 3.0735826 1.2304838
-2.6738553 8.240437 -2.4283733
-0.5595846 5.892317 1.4722536
0.73360145 6.518729 0.7353624
-0.1756249 7.923706 0.3453644
-1.9275646 4.60695 0.45133668
2.2873187 7.9311953 0.72726536
1.8686085 8.589535 0.917392
1.3413906 3.7840958 1.3134365
-0.14856285 11.879831 -0.4710279
-1.736582 9.995392 0.80418324
-0.024236009 5.571088 0.8360212
1.1577582 1.5681052 0.12278518
-0.363905 2.8920355 0.8566463
-1.0785031 0.61962414 0.9665301
1.4552357 7.1517477 0.661971
-2.7092438 6.7622185 -2.944295
-2.31979 6.8511333 -1.8964143
0.64201355 6.840247 -2.783843
1.916481 1.3600831 0.8737855
-0.49377918 3.5357895 0.5296339
-0.50834 9.07213 -0.2481026
0.60550106 7.1386623 1.661937
-0.21960554 12.123487 0.50308716
0.06271252 12.360666 0.15558293
0.7109532 5.8038874 1.3353801
-2.0192099 -1.1733239 1.4873295
-0.22678727 6.6515284 0.91852283
-0.058722004 8.2152 0.09269427
-3.0739074 6.735857 -2.1040344
-0.5107815 8.818075 1.6585207
0.041234247 5.890767 0.13119161
-0.8717351 9.167013 0.8439187
-1.2036421 8.053019 0.15667397
-1.6286793 0.47104144 1.0734959
-1.7676601 4.575514 0.07167257
0.13346836 8.702839 0.5929655
0.6097232 12.744476 -0.073607534
-2.5877275 6.320223 -2.8756843
-0.7985785 5.428689 -0.068828136
-1.8219581 1.258538 1.2702835
-1.6996248 2.8013868 0.36694103
-3.1970458 8.757332 0.7883736
1.2491167 4.916996 1.3853505
0.45376217 10.371195 0.5642314
1.8579817 10.473849 0.6860664
-3.9022188 7.8929863 0.44069517
-1.0335112 4.93521 0.8397025
0.9956552 10.113493 0.13248524
-1.9733715 -1.3796885 0.7264247
1.3185854 6.6365433 0.24428439
1.17465 10.794134 0.62293756
0.7265894 8.2210655 0.551005
1.3257835 3.402669 1.3019855
1.5893481 3.2103987 1.0759525
-0.099015564 8.376087 0.8621818
-2.1150436 7.36605 -3.2484756
-2.129509 1.6574185 0.38035607
-2.791503 -4.534918 -0.72004235
-0.7508253 9.140429 1.5759318
-1.975203 -2.6158543 1.3209589
1.0496438 10.121634 1.3649459
-2.0358226 3.8189392 0.42504048
-0.40539664 12.708929 1.0993483
0.9964801 0.3820693 0.8646499
-1.9756866 -3.9593844 0.78618
1.432647 4.7273455 -0.17366645
-4.201618 7.3397303 -0.62873447
-2.0273433 1.2986224 0.22040409
-1.4101694 3.1929784 0.77148426
0.670869 4.626131 1.7725029
-0.76493967 3.4105673 1.3977103
-2.2029471 -0.05999746 0.9500387
-0.45427412 8.575554 1.3914313
2.137639 8.764509 0.6880112
0.9366548 5.0952883 -0.37742394
-1.2259707 6.6770487 0.8246006
-0.116824016 13.710339 0.19424912
1.1667838 4.2460575 0.9459686
0.08872436 5.6234283 -0.600055
-1.5324163 2.787229 0.7394097
1.2064509 4.9663267 0.9868336
1.5701838 10.179661 0.5793537
-0.688198 5.4966135 0.5237006
0.91167426 8.723114 1.2677402
-1.6319823 8.52088 0.053652182
-0.9279808 8.359175 0.80511725
-0.4166594 2.1691208 0.552686
-1.2124522 5.506749 0.016111333
0.41323763 2.9992428 0.6937189
-0.5893874 6.3260593 0.4390148
1.4704537 8.947889 0.4846418
0.26882422 3.6348314 1.5424709
0.5393485 10.04752 0.76091194
-0.018192261 7.3003645 0.7092211
-0.10670316 7.9515247 1.0115347
-1.8856704 -0.7876886 1.5671463
-1.0805106 0.22190809 0.53636944
0.081703395 11.402742 -0.1469298
-0.94650495 3.4543538 0.6337491
1.3272905 6.539566 -1.8397439
-2.7724533 7.480465 -1.7976218
0.3030712 9.9596615 1.0853114
-1.4324107 5.2629395 -0.251828
1.5244417 9.677389 0.47453332
0.5898545 6.035719 1.0195279
0.7825875 5.388238 1.3498046
-0.9553462 10.266659 1.0029309
1.3208385 -0.7945516 0.2384246
-2.1443439 -4.583933 0.89338195
-0.28899682 12.942106 0.7696928
-0.9012872 6.7184887 -0.25815082
0.11755413 5.19318 -0.60680914
0.64847434 1.1145308 0.6365528
0.26767218 8.54398 -0.2482239
-1.4073162 2.055191 -0.29408836
1.3318918 4.921962 0.5887513
0.26307243 6.534775 0.37415826
0.33836186 9.068258 0.5523175
0.44883847 5.990185 -0.040638767
2.0586824 1.8981411 0.42031413
-3.3254533 6.250883 -2.5779433
1.8621833 1.0577314 1.1349065
1.2998488 6.9016953 -1.8564249
0.13324189 4.2391987 1.2173955
0.45187038 9.215475 0.17139512
0.9378216 -0.7431004 0.5401038
0.4916054 13.352806 0.13852617
2.0793076 -4.1545544 1.0728104
-0.772526 2.3636222 1.2947254
0.7220415 7.0220757 1.3072729
2.0277157 6.7773924 -0.7571783
-0.5166575 2.2765489 0.9165349
-0.9457685 2.5020332 1.0025203
0.9369073 4.838773 -0.029415276
-0.870937 8.3441925 1.5440953
1.0865984 9.603443 0.37467676
-0.18926102 8.042982 1.6806238
-1.9594469 6.8211327 -1.6994872
0.2793494 12.61224 0.95156485
0.058525622 8.601824 0.10535309
1.1099968 3.8605504 0.6749557
1.2600968 5.659561 0.11746243
-1.7789326 0.33002132 0.65063894
-1.0404472 7.3337584 0.52736515
0.49963862 4.4446354 -0.51231
-0.4603907 10.154652 1.08179
-1.7968042 2.3916698 0.5398004
1.0170708 2.28435 1.3234682
1.2601783 0.21090478 0.04317592
2.2466488 7.0775757 -0.74952805
-2.1948252 -0.1053724 0.4619258
-2.1803946 2.4530444 0.5606127
1.3139808 1.4864578 0.8805759
-1.0981803 4.0632095 1.5793734
0.67968 3.657311 0.14493039
-0.42290515 3.8142948 -0.529943
0.103083506 13.513824 -0.40421522
-0.64030993 3.0957627 -0.015911598
1.6620169 -1.0692937 1.3946533
-4.0409117 7.5571012 0.15250817
-2.0181155 -1.9501398 1.4042387
-1.4900656 6.1344786 -0.0825105
0.08187145 3.8035269 -0.44965327
1.4551775 8.604202 0.2156823
-1.4268076 4.759386 0.73765576
2.1503282 -1.4077108 0.6266961
1.1507947 6.6272945 1.2477014
-1.6301785 3.9473734 0.40013266
-1.503051 9.130375 1.178158
1.5874736 9.862307 0.17021981
-0.48181027 8.150417 1.0504246
0.28789365 9.224918 1.2234695
-3.0819106 7.7968197 -3.0814366
0.65843666 3.5231667 1.5347867
-1.1587706 9.594807 -0.060551926
2.175201 -2.2536726 0.72361684
0.509006 2.5410776 0.2141464
-2.931903 7.0474787 -1.8017557
-0.07520689 4.693714 0.11478835
-1.1255171 10.19549 1.3981535
0.105701715 7.6392994 0.3778965
0.60643053 12.610416 0.31104535
0.6041893 7.2200193 0.12789664
1.7699769 4.042143 0.83662915
-2.9964595 7.550398 -2.8673458
1.2782688 2.3114014 0.34842294
-0.8413156 13.090563 0.74867773
-1.3420289 10.149761 0.9101051
-2.694538 6.7455664 -1.9296808
-1.4807601 2.3335376 1.2374885
-1.0403953 3.056108 0.6621095
-0.21537071 11.425604 0.66006947
1.2731357 6.233817 1.1438491
-0.20807919 13.231522 -0.2309297
1.0953369 9.412788 -0.05747334
0.99022627 1.6012411 1.0989437
0.9557785 5.070716 0.42899364
-1.4365721 1.9589839 1.2739305
-0.67883146 3.4432783 0.9871292
0.9918202 4.631956 1.1321125
0.801442 1.692168 0.7112136
-1.8353541 3.1021605 0.73449075
0.8324151 5.3496733 0.69826305
1.0733833 10.725332 1.0063479
-3.7337742 7.2032127 -0.21006078
-2.2187805 2.0357957 0.5343169
-0.8643329 4.516967 0.96625805
-1.0253105 7.7849226 0.47776693
1.178103 6.757683 -0.077935845
-1.5068216 4.503892 -0.24097732
0.6570127 9.446756 -0.1255646
1.3571937 7.6250744 1.1845233
1.6015935 0.58133614 0.47663963
-0.5121242 5.4111967 1.795969
-1.8905911 -0.8778883 0.620492
0.09524882 4.5317316 0.458277
0.77406037 8.533625 0.25008726
0.40039998 8.783941 0.25561285
0.31155586 7.1498947 1.4091239
-0.37601656 5.9797764 0.15482166
-0.35713077 9.57011 0.19426653
1.4975126 7.5357227 0.7696315
0.5548742 2.7709265 1.0413141
0.3599984 5.1858196 -0.059643462
-0.32073146 8.876825 0.051472485
-1.3957775 2.7026377 0.012445206
1.1379583 6.489049 0.8363607
-0.731097 5.6958456 0.8865377
-1.1411018 5.959794 -0.10166851
0.18781808 7.34507 1.7986405
0.5287435 9.201279 1.6134031
1.300652 8.055944 1.2459211
0.86460286 9.799295 0.7462511
-0.09029721 12.247507 -0.56680095
1.6254804 0.33258027 -0.19592181
-0.95052135 8.528236 -0.23712271
0.43020576 9.656637 0.22270198
-3.1950774 7.3905516 -2.296914
-1.7557375 9.810965 0.44006765
-0.3118736 9.91942 0.7164154
-0.56810117 7.870367 -0.28478986
1.0740063 9.026955 -0.089408934
-0.18048954 12.561094 -0.024765268
-0.23578635 4.908682 1.1685405
-0.06071718 7.209523 1.4253037
-0.35943484 4.5341835 -0.60500133
-1.9390783 -4.6239576 1.2990923
-1.6679289 9.702251 0.093186915
-0.09096214 13.158283 1.0384307
-0.6291672 2.7192955 0.12885341
-1.1587684 4.284459 -0.042649813
-1.0992486 10.727367 0.39644903
-2.492885 6.6077375 -2.6114545
-1.6362283 3.6772103 -0.23528042
-2.0799193 9.125969 0.5626261
1.5793111 9.820694 0.8716092
-0.71349716 7.0688677 0.46643907
-1.412538 2.490869 0.4416389
0.55508006 3.2771277 0.30618483
0.20931858 2.7894678 1.0011079
0.8312882 6.1563635 0.7184111
-0.89022255 4.0578127 0.16891736
-0.9967632 8.962074 0.5343406
-0.7850187 13.085131 -0.27520037
-1.3233569 0.8998792 0.54080486
-1.0795867 5.055724 -0.01969114
1.6462393 4.5935917 0.15884921
-1.5696273 0.27548486 -0.16042235
-2.7845187 7.396309 -1.3934462
1.3602288 6.3109694 0.4834274
-0.38098657 4.8120766 1.5159214
0.5131862 1.4248257 0.8316382
0.062268987 3.4550815 1.214117
-0.9285505 7.671138 -0.21997261
0.54536426 10.318483 1.0356624
-1.7709055 6.82397 -2.74687
0.24879718 5.5180216 0.17987636
0.7983925 10.952143 0.7367258
1.2158418 2.624401 -0.38403505
2.0666962 -0.05781631 0.30659944
-0.9437139 0.94224095 0.7359946
-1.6006525 2.8702807 -0.2993111
1.7228441 -0.75741863 0.059692964
-3.2098556 8.780848 0.38761336
-0.73911667 12.320879 -0.34195232
-0.9213015 8.097933 1.1554577
0.55975413 7.9374113 1.6215556
-0.85371375 2.6550684 -0.19363856
-0.50999653 1.7959282 0.42751575
-3.9012995 7.875143 0.029810362
-2.1621242 0.21209288 0.6699014
-1.6231542 7.0407877 -2.405706
0.22378284 12.009136 0.34138525
0.8818948 9.401781 1.5195398
2.0005126 7.00832 -1.0202081
-0.4512363 7.676379 0.9616777
0.54207385 5.688244 1.7123115
-0.8121208 13.369434 0.005026415
0.051200077 7.2122593 0.32042605
-0.9845933 3.043522 1.405838
0.21224299 2.6199932 -0.04088418
1.855917 1.4669654 -0.02910081
-0.40003657 5.3398457 -0.111685365
-1.3015165 7.8536835 -0.1540538
-1.716866 -1.8223531 1.2304192
-2.6792603 6.8516493 -3.329883
2.0498137 9.231781 0.1898714
-0.19651449 5.8699894 -0.553283
-2.560101 7.179922 -2.020422
0.7154112 3.9601336 0.4879741
1.2943008 5.291544 0.36027998
2.2462082 9.730616 0.8536475
1.8252957 -2.1880407 1.1674321
0.17606413 6.9749193 1.8136923
0.59284043 8.794771 1.6137085
1.5055795 2.8515043 -0.3309483
2.2298293 -3.1301994 0.7977346
-1.7388954 1.5732784 0.3254118
-3.53787 6.902731 -2.701168
-1.2769976 7.2962027 1.3367319
-1.3369823 0.2456963 1.2684069
0.1643132 12.218925 0.84460473
-2.2810292 6.901787 -2.8155508
1.9345732 9.608839 0.1925027
-1.1278365 7.334347 0.9716661
-0.10202213 11.898737 0.21215132
-1.2546079 0.24174792 0.16658255
-2.4696336 7.302206 -2.6021495
2.5360913 6.9678793 -0.114314556
1.2540622 1.829807 -0.29635328
-3.0318613 8.381153 0.5316019
-1.3680949 8.742758 0.38724905
0.24523395 2.4548488 0.8139856
0.6037235 6.1936274 1.3780718
-0.934139 3.7275925 1.5777721
0.21866393 8.403868 1.3907456
-1.0234551 1.7905982 0.6670307
2.049337 0.6885086 0.3658325
0.94254947 6.7966595 1.6122918
2.5524178 8.663895 0.74053764
-1.3233871 9.400066 1.3505793
0.78514206 10.685616 0.43806064
-1.3135798 7.101774 0.73437834
-0.74670374 8.754042 0.7966628
-1.640974 3.1924462 0.40628177
-1.1271567 6.9196024 0.4569264
2.622316 -4.033252 0.22673813
0.5051682 7.0265446 -0.32654232
2.250885 -1.1144736 0.8188212
-2.6653242 -4.297617 0.6606227
-0.27454245 8.743834 0.75556123
-0.81071544 2.912125 0.9731662
-2.0400968 -3.756022 1.2185261
-1.8194244 8.946985 0.926263
-0.8069315 2.7226367 1.3688347
2.1362538 -3.2648544 1.1423573
0.24946865 3.567933 0.18541402
0.8539425 2.460185 -0.3519131
1.621222 1.3622911 1.1930218
0.5925745 9.449337 0.5498903
-0.31619078 4.444168 0.387816
-1.671684 4.9885654 1.0171783
-1.3208976 0.9285984 0.9355215
2.7143211 -4.636072 -0.13476077
-0.23424914 3.2445283 0.62768114
0.36042875 3.7938356 -0.1752311
-2.0644221 7.9846964 -2.003181
-1.7911687 -0.33519828 1.5427883
0.3091365 8.32756 0.33660758
-1.1536119 4.9436426 0.43610936
0.4559027 12.282572 0.31062233
-3.0525455 9.149624 0.5546919
0.9566796 1.3217108 0.7616466
1.3467147 0.61694443 0.82767475
0.85245264 10.500862 1.2720907
2.142157 -0.11136225 0.7477727
-2.9604506 7.037386 -1.4158833
-0.5405929 4.080961 0.4894973
2.0190601 2.2787676 0.33381504
-1.7807896 10.284498 1.1000335
0.26272392 6.1135235 0.37150967
0.7679732 5.5157804 -0.4002695
0.89393556 4.9095964 0.7901329
-0.93706036 12.798111 0.5138159
0.8070457 6.7754335 0.9707545
-0.3421626 9.178118 1.5811012
-2.5667057 6.396323 -1.74545
-0.87611115 4.286895 0.5752727
1.558116 -1.4465654 1.2418242
0.13060632 6.6014433 1.0291305
1.3864269 3.8614607 0.044297304
-1.4063947 9.654674 0.5943887
-2.950068 6.215272 -2.754578
-0.54002774 12.46879 -0.057840757
-1.7277288 0.63480127 -0.208204
-0.6913401 8.918581 1.2055902
0.16641873 3.5803585 0.86956525
0.2225048 8.202295 1.0502021
-3.0613465 7.675192 -2.4954014
0.15297717 7.3480444 -0.33469456
0.39425862 3.670401 0.48277968
-0.8882078 7.4321547 0.102209315
1.9035461 9.847836 1.0743012
0.4031604 7.387411 0.3929196
-0.35557324 12.16888 -0.29825735
-1.2034991 2.8474975 0.9750091
-2.9855542 6.4410763 -1.7947416
-1.6072576 7.336381 -2.1072044
0.75881493 4.717023 -0.51155937
1.8267181 -0.8219476 1.0380995
-1.051296 3.6593928 0.2043443
-1.0735312 5.2675323 -0.34227574
-3.2748084 6.6193113 -2.4885707
-0.29312956 3.9009619 0.72345877
-0.7400869 13.414291 0.3958053
0.7339935 9.019379 0.5206093
-1.8571379 -0.46046823 0.47011632
0.977056 5.936797 1.0615518
-2.276256 6.2608957 -2.548108
0.859799 -0.2983564 0.47888458
1.4353707 9.027391 0.09772669
-1.3047175 3.6954732 0.47576135
0.043315962 12.736237 0.7166935
-2.0606666 6.945915 -2.1845255
-0.9206079 12.961597 0.083324775
0.380369 12.041653 -0.0011352673
-1.1812131 -0.1473712 0.7959063
0.7195418 5.2498255 -0.1107496
-2.3440638 -3.9443135 1.1025436
0.8138789 4.0556555 0.844442
1.1098406 5.2578173 1.4856024
1.480658 10.01445 1.2349846
-1.3327386 2.2632756 0.05097641
-1.8932273 1.4976785 -0.049033515
2.197444 -1.7125683 1.26753
0.7506094 0.37222195 0.49612385
0.27053142 11.95783 -0.6418159
2.3622136 -3.6316023 0.6090424
1.5645766 -0.07494086 -0.11409034
-0.18575117 8.054001 -0.31539118
1.7990785 -0.22192356 0.633963
-1.0204995 1.973666 -0.25679952
0.13407719 6.3195763 1.4380517
-1.433898 5.687895 -0.2177822
-0.83979034 9.364523 -0.16085279
-0.6723968 1.5149715 0.23175666
-2.8767424 8.070259 -2.8050685
0.8813026 1.2414305 -0.09738925
1.5772638 5.0043077 0.103416696
-1.1593757 1.8896022 0.13629985
0.2719502 4.6495857 1.8637989
1.5948675 6.8362255 -1.7250242
1.8175414 6.929268 -1.3893814
2.0478578 7.0719223 -0.47869444
0.26048422 4.171811 -0.5712757
1.1228819 5.504772 -0.23009324
-0.7071805 10.8103695 0.29392743
1.2160888 3.2736754 -0.11673455
-0.5730542 6.524687 -0.39319694
-2.207831 7.309081 -2.9002295
-0.4897576 2.1193118 0.14520383
-1.2654612 6.1306076 0.7022588
1.8553693 0.6930541 -0.003579251
1.3786724 2.040011 1.2389083
-0.5301187 8.405407 1.732647
-1.1107192 5.0472164 1.6035175
-1.307215 2.445887 0.87363195
-1.60408 7.3496027 0.05738323
-1.5946138 4.9115562 -0.07563764
0.7780386 2.2144217 0.15957788
-1.6823306 8.597424 0.85306394
1.2398355 3.048407 1.1840155
2.6348195 -4.5965147 0.29455644
-0.43376744 9.501705 -0.18085027
0.50954604 9.634123 0.90593493
1.93578 0.23093 1.3069351
2.1693745 8.693548 1.1216912
-1.5680516 6.511199 0.25801152
-0.20898265 11.498539 0.22563496
-1.9335499 6.4842186 -2.66894
-3.4771242 8.46874 0.53113747
-0.90637827 1.6586244 1.020622
-0.12694684 6.5405474 -0.17658839
-0.87928283 4.6993017 0.6045892
0.15486586 13.171919 -0.5666084
-1.5451193 -0.3432207 0.7936257
-1.9000425 6.6078653 -2.012814
-0.9062884 9.551996 1.1502631
-0.82714033 1.9835973 0.39464933
-1.1497929 0.89247596 -0.019315898
-2.7141085 6.954645 -2.6264215
-1.3774903 0.467856 0.79294586
2.7384906 7.917724 0.8787608
1.671819 -0.7903415 0.463081
0.8163099 6.0286627 1.6669006
-0.17835453 11.468697 -0.43077308
-0.66059494 5.8606625 -0.13205245
-1.8740482 7.919755 0.48518854
-0.835197 4.8187847 0.20590127
-1.460402 6.113122 1.1572204
1.396208 7.2007046 1.0913498
-2.1786408 1.2982938 1.0503476
-2.023769 6.710437 -3.0429292
-0.49934083 13.189972 0.053161133
-2.018022 7.41714 -1.560384
1.1504865 -0.46635658 0.30414695
1.185147 5.6048136 1.3126197
0.8303368 3.221161 -0.12101771
-1.5901344 8.439369 0.4589113
-3.2738228 8.348324 0.24943045
0.17100933 3.287301 0.50022805
-1.6260583 9.2829685 0.80326176
1.0771873 8.981121 0.6994457
0.51094365 6.602293 -0.39368504
1.2831616 10.3973465 1.1698055
-1.1903169 -0.11253312 0.3741119
-2.3308234 -4.590455 0.43493497
-0.9863399 6.5159597 1.5640545
1.5265993 2.5945134 0.0757114
-0.5318389 4.6842403 -0.27862322
1.5556533 0.75180066 -0.219462
0.39647317 11.03746 0.8348024
1.5852745 1.6157534 -0.25472307
1.5386198 -1.3544676 0.84291816
2.2974 -4.3036222 0.3088823
1.8775368 0.05835814 -0.0068617733
0.61706555 4.5437 0.14268005
-2.0465055 7.7262726 -3.0326319
-0.46523982 8.05192 0.03635239
0.23551601 8.196833 1.7510712
-0.44281918 3.8174696 1.1124082
-0.93356276 2.2580414 0.08841325
1.7045085 0.80525756 0.869341
0.5320072 7.528614 1.6350782
1.713957 4.831915 0.439067
1.4337342 2.4258718 1.1148343
-0.13557023 7.3888674 -0.022290643
-3.0827246 6.9550858 -2.474203
-2.7037635 -4.212696 0.2796132
1.7682714 2.9057422 0.82385933
-1.9940014 -4.3023624 1.5363688
-1.8125677 7.454316 -2.9351892
-1.1993291 -0.64635885 0.85633683
-0.8135114 3.3180127 0.28423476
-1.5118973 -0.36071283 0.31614536
0.71985936 6.631447 1.33726
-1.8353496 4.9952345 0.25474608
-3.0812302 7.3739004 -1.9474747
0.88202477 2.5295472 0.36215192
-1.2731018 4.4132004 1.1063938
-0.23046109 5.0326233 -0.28127795
-0.6412922 11.9463005 -0.11420572
1.5843859 3.3268075 0.476211
-1.2615952 7.4278812 -0.14297658
-0.77349424 1.209672 0.46881855
-1.0058861 5.3193407 0.29651535
-0.9357219 6.9147577 0.8072523
2.5871775 7.812209 0.4983201
-0.26035416 5.374834 -0.53061295
0.14972863 9.408804 0.4779703
-2.7487922 6.6883917 -1.5067213
-0.43976194 12.798937 -0.7409526
-1.3511014 1.510133 0.11642358
-1.0620351 2.6137142 0.16272125
-0.554204 5.6580687 -0.44069827
-3.9047318 6.6261415 -2.5460281
2.305111 -2.873437 1.083024
-1.6117923 4.6008577 1.2083457
-1.9756205 1.8748608 0.10211654
-0.56084216 12.392868 -0.7201586
-0.6912466 5.7540836 1.8018198
-0.8071966 9.607716 0.20719317
-0.34126323 5.8644276 0.81299424
-0.05649101 6.7674437 0.21661922
-1.2241762 9.421984 0.94248235
-1.5035088 2.468371 -0.3093583
1.9098551 -2.4533272 0.91871154
2.0716338 -2.5386786 1.2439806
-3.6134057 6.9967995 -2.039144
0.7853924 3.9567666 -0.15178761
-0.95240986 6.1658583 0.48643434
0.86286855 7.1276293 -0.16596049
-0.6772493 9.777954 -0.10506345
-0.46904767 9.9025955 1.4511273
0.4913627 4.006054 0.17508802
-0.84272504 6.2121744 -0.31722492
0.9848747 5.269696 1.0588651
0.84406495 10.212072 0.5398942
0.93849635 6.9422493 0.19999257
0.88199747 0.06827715 0.3426116
-2.1101174 8.015076 -2.7168357
1.0811965 3.6617231 -0.13308224
-0.9430872 8.108082 -0.21674976
0.52083325 2.3382192 -0.15898138
-0.6115439 11.1788025 0.1662195
-1.494339 5.417244 1.1574883
-0.5579351 8.2766075 -0.27804357
0.3600514 9.671995 -0.12452628
-2.1845384 -0.38395655 0.19496495
-0.11655386 4.292856 0.06798637
-2.937132 8.142271 -2.1122632
1.535645 -0.12795988 0.97444344
1.9523172 0.34674662 0.2115027
-0.083978966 3.7891068 1.2783136
2.1447148 0.9717723 0.90524065
2.1771946 1.1278093 0.54169416
1.4425538 10.233273 0.20187938
-0.26613438 5.68668 0.48004097
-0.5355208 8.673674 -0.28027114
-0.6703291 3.7855868 0.7855041
-0.48821723 3.176381 -0.3947509
-1.3277671 6.5302563 1.3190014
2.4494343 7.4950037 0.19905213
-0.7954501 12.459087 0.6364697
-0.6018888 13.333113 0.74346673
-0.17693347 4.147256 -0.5618049
0.5012183 2.7053428 -0.30504698
1.1222692 2.2642326 0.9735106
1.2881744 5.088229 -0.19486603
3.0884857 -4.57261 -0.18978786
-0.50896704 3.7431111 1.4964995
-1.1139643 3.6001143 1.1865807
1.2082198 4.198572 1.3936663
-0.6509062 9.753836 0.5597684
0.3350752 6.937607 0.33784795
0.5513402 8.64464 0.59190464
-1.3411217 3.7855954 1.4744227
-0.78984654 2.0354 1.1068032
0.3444211 7.361145 1.0494223
0.8893266 9.518421 1.1188834
0.70624673 5.6073856 1.0002952
-0.7247691 2.236476 -0.19092765
-0.62698126 9.541271 1.530551
1.5184095 4.8514824 1.0790755
0.15937096 6.506753 -0.50219023
1.6257534 9.183544 1.1823742
1.017921 3.5989375 1.421624
-3.1148238 6.7310953 -1.6072214
-2.060985 -0.7018752 0.11044167
-2.1922202 -1.5861578 1.325172
-0.2301453 6.4635096 1.7295456
0.8310727 6.7352304 -0.27305412
1.8861432 3.1124 0.121413395
-1.8534226 3.8463783 0.79242635
0.93614864 8.287571 1.2584534
-1.3729792 10.438539 1.2078269
-2.0517354 -3.3465576 1.2624762
2.3081098 -1.9805813 0.95929444
-2.9889693 -4.590228 -0.38444334
0.83098304 4.2613125 1.6119275
-1.9432452 2.7037182 0.806406
2.0112538 2.2262464 0.7515789
0.028483193 9.706972 0.8223115
0.4634232 6.491802 1.1407506
0.9172802 8.523315 1.5745542
-1.903904 4.2199783 0.2412959
-1.0599174 8.795977 1.0877571
0.53900814 3.9486814 -0.5569645
1.5338736 4.361704 -0.105901
-0.7766944 6.094695 0.8601625
0.7021371 9.102842 -0.18887621
-0.43555415 3.151196 0.26447523
1.8301132 0.4706905 0.76214564
1.3821542 1.8770914 0.42197818
-2.355153 7.9544964 -3.0239267
-0.55318594 4.519253 0.6794939
0.370291 10.065691 0.34677917
1.7166097 4.1801367 0.16137126
1.2004814 7.611871 0.017022844
1.272315 1.3834155 -0.26342434
0.22957334 11.690386 0.088813215
-3.1767526 7.937723 -1.8886306
-1.6482201 10.345198 0.6838765
0.5666746 10.026863 0.007943889
2.3613977 9.329628 0.8977233
2.1337786 -0.13320687 1.1563647
1.5298505 1.3739691 0.13342196
2.6069884 8.265745 0.75248206
-1.7833927 8.207626 0.7433672
-0.13342798 11.139097 0.18503806
-0.04301337 9.882452 1.4533803
-1.2023151 8.15325 1.4569855
-0.12491028 6.027013 1.5021069
-2.41894 9.698868 0.24191985
1.0953884 2.8914595 0.57124937
1.3360257 4.178731 0.26459146
1.1924016 1.2214746 1.13448
-2.1475883 7.638345 -2.0919685
0.18318218 4.9766903 1.1455076
-0.18458289 3.1515088 -0.15270382
-2.280056 8.154274 -2.3531032
-0.15568954 3.408537 0.25266033
-0.10962468 13.343544 0.17432907
-1.1611936 4.493286 -0.44092238
2.250054 -1.2791581 1.1950929
-0.7027905 9.879786 1.0760679
-2.9785676 7.723895 -1.5584576
-1.977663 -4.2181473 1.1107724
-0.6361525 6.4900265 1.790966
-1.8970628 -0.9458859 1.0992861
1.5229185 3.6381536 -0.27146733
-1.7173185 -1.6390266 0.92868114
2.0626197 -3.479288 0.82327294
-2.492087 9.288427 0.91627383
1.1012471 1.9804769 0.096391335
0.04196828 7.0401087 1.025533
1.6438143 5.1167555 0.8107474
-2.7694144 9.445515 0.35785878
-0.4834056 4.124546 0.10808349
2.7004123 -4.1867294 0.89461505
1.0299604 4.267421 0.5338737
-0.0648063 7.494625 1.0965817
-1.6730213 3.0993614 1.0892179
1.9898174 2.629631 0.60845804
1.5004814 4.062912 1.1158376
0.8449273 4.2663307 1.1910999
0.032757483 4.5992813 1.0922804
-3.169859 7.3514233 -1.5297496
1.2202291 6.7597837 -2.2002387
0.78152704 4.4937954 0.81914425
-2.2411308 -0.40646362 1.1238658
-2.1700711 0.60896266 0.49777293
0.009759696 5.356179 0.5011542
-0.50360763 6.8611164 1.8127425
2.4427643 7.483285 0.6193711
2.5931053 -4.6111727 -0.67580986
-0.6962687 5.013776 -0.16016921
-0.2677188 9.508411 0.62311447
-1.6858709 -0.73321176 0.18711925
-0.14532751 4.6670313 1.863209
-2.8267798 8.534647 0.8327093
1.5578225 0.41602612 0.16283643
-2.642953 -4.59661 0.08894077
-2.5406384 -4.2448797 1.069701
-2.0379338 7.132228 -2.5686412
-1.5543609 3.5303245 0.16524878
-0.9071541 7.944728 1.5338507
-0.5433401 12.349653 0.93116856
-1.3795252 3.898631 0.052153617
1.7601037 1.2737458 0.46264964
-2.1523967 7.0698357 -1.4789045
-2.8311863 9.47534 0.7422446
0.05155383 3.172556 0.8602904
-3.5912285 7.679041 0.27227122
0.011117922 13.117489 0.54677534
-0.4965461 10.511793 0.0802321
1.9110274 1.889189 0.018766202
1.1535664 5.9811773 -0.088304505
-1.2775178 4.7007647 0.04430014
-1.4926164 7.6023397 1.0913072
-1.6907103 9.359293 0.41442448
0.6206422 5.3670125 0.2741655
-3.396894 7.5756006 -2.9088726
0.55930936 8.583019 1.2548721
0.8606945 3.3294706 -0.50843036
-0.92662525 8.582069 0.4356972
0.27204955 13.029947 0.8974712
1.4060953 7.4240646 0.33509213
-0.16281813 5.3557215 1.1707997
0.20195451 7.5637846 1.3984458
-0.073002025 4.9272423 0.45600635
-1.436238 5.0619783 1.3345823
-0.87530804 5.876402 1.2417543
0.8723893 0.76302874 0.7499758
2.179523 8.315447 0.99220884
0.26737982 4.5443544 -0.17296168
0.93442404 3.28201 1.3046327
1.6724102 2.1109781 0.2610559
-1.0139627 5.137926 1.2138281
0.26593673 12.321032 -0.7272402
0.10875727 8.019875 0.6209711
1.9338529 3.0558672 0.50221026
-1.1801822 2.0684175 0.94442654
0.5025861 3.136444 -0.44440067
0.049278907 5.6052217 1.5061765
-0.20761597 11.746126 -0.10034641
2.3055634 6.8280983 -0.45840442
1.1233861 5.9714546 1.4168816
0.33980238 2.8287988 1.3675554
-0.5704607 8.962206 0.45892513
-0.25573957 10.242737 1.3896515
-1.2889411 9.233305 0.5775181
-2.9387546 7.145767 -2.9486628
-0.07112332 8.631678 1.2010589
-1.213912 10.813175 1.0484936
-1.0807736 5.342984 0.6692499
0.9992974 9.120323 1.1065619
-0.6873236 10.46456 0.48513728
-0.47921038 4.801697 0.4099803
1.2367113 2.7071466 0.28896904
-1.6276555 4.2340984 0.947386
-0.17503813 6.545333 1.3410642
-3.4955454 7.6647024 -2.51027
-1.4540975 -0.7269441 0.48318815
1.5945601 5.6177597 0.3998044
-2.5742226 7.75541 -1.5225127
1.5329764 0.12583324 1.309073
1.1605201 2.631637 1.2973046
0.26197523 8.620043 1.7160438
2.376295 8.148233 0.44689125
-1.6889322 4.1483307 -0.1287385
-1.365916 4.71865 1.4918399
-1.5967774 5.756012 0.9917351
-1.961031 7.96006 -2.370417
1.841866 3.67525 0.6949146
0.79922664 2.815318 0.77018714
-0.7978418 8.349997 0.09616706
-3.0400867 8.112921 -2.48145
0.6737485 3.1622562 0.98716843
0.47986847 3.3866477 0.7591275
-2.034377 2.6472845 0.23769227
-1.9310455 8.705206 0.23132452
0.048955508 6.3881483 0.69775665
1.5570209 1.1761076 0.8298912
2.2721586 9.4459305 0.5069593
-2.3548684 8.84165 0.3891692
2.2589035 -0.7598989 0.62825525
-0.43208748 12.872583 -0.1948677
0.44027615 12.536179 -0.44185084
-0.421225 4.544367 1.0531061
1.2551627 9.295601 1.3785372
-0.79977524 6.278099 1.2990446
0.23308003 7.115101 -0.022225186
-4.2500067 6.836315 -1.8439686
-0.22544762 12.112188 0.8823205
-0.28174895 7.2401533 1.7524688
1.3732898 7.0089455 0.28238565
-0.3660214 7.253125 1.0649424
2.1577702 -2.1228023 1.2532785
-0.33236647 9.707802 1.1058896
1.4260843 4.1267014 0.63815594
-1.0042393 4.116869 0.871148
1.1207479 9.182108 0.31436247
-0.050757475 11.975796 -0.8675436
1.8045835 3.9376535 0.42408663
-2.9069657 8.631634 0.22055373
-0.6518632 4.5929604 1.3788288
-0.16972852 2.7963014 0.052655533
-1.788883 5.374585 0.40948367
0.51178205 4.6975327 0.5496434
0.09274079 9.024223 0.16887811
0.43327183 12.412758 -0.0646881
-0.53206575 6.06592 -0.47771275
-0.87856054 6.4575005 0.7907448
1.4827888 10.575922 0.8746464
0.25796866 7.956129 0.13502157
-0.08607569 5.4050684 1.8633192
0.33072275 8.326826 0.6974976
0.5463985 3.9189415 1.6538925
-0.90087926 10.428648 0.13332286
-3.870233 7.4569616 -0.5279875
-2.2276258 6.4324503 -2.8934612
2.19067 -4.306838 1.4467528
-1.5667348 5.7527304 0.14720544
-0.02652609 12.8142605 1.1080298
-1.5478532 1.8353326 0.060811646
1.2538054 4.8714476 0.206907
-3.5947828 7.7548084 0.6648389
2.3789787 9.035732 0.55117273
-1.0761385 3.3277292 -0.38430822
0.03614866 6.854439 0.63141656
-1.302119 0.66736686 1.2776341
1.1168046 0.6077186 0.5037905
-0.12812483 11.075199 -0.20806202
-0.633309 3.1543617 0.6862595
0.8910501 6.539029 0.09374632
0.23614138 6.156008 1.0864506
0.71981335 1.3609719 1.1247783
-0.724903 7.2283926 0.8481251
0.38844395 10.554594 1.2728274
1.391068 5.974107 0.27622265
-1.6659062 8.137947 0.113797486
-0.6255835 9.332135 0.49452174
-2.098907 -0.49422532 1.4320195
2.657054 7.368286 -0.06676346
0.49671012 4.2062836 -0.1773417
1.6245248 1.598562 0.68136394
1.8788106 -1.2128994 1.0083845
-3.298553 7.9475794 -2.2853303
2.1766014 -2.7128682 0.77356267
0.25138783 13.518715 0.3815781
1.8296666 9.91556 0.58486545
-2.186541 6.4572506 -1.8249779
-0.019509166 5.134798 0.100814626
-1.8103259 -0.3855334 0.009038495
-0.13555017 4.598095 -0.25703788
1.1277716 10.4613495 0.3266155
-2.053039 7.5364475 -2.5448508
-1.3327346 7.574868 0.6892028
-0.5790998 10.160793 -0.024165206
-0.23523968 9.219635 0.2990448
-0.472418 8.197071 0.36532283
-2.0390353 6.3758698 -2.2601495
2.3787389 -3.4894648 0.97121465
-0.88723767 6.6219053 0.42368358
-0.8893244 3.7347426 -0.48988205
1.3102901 10.110712 0.8657545
1.2696264 8.8871 1.348733
0.15499774 13.391453 0.79679
-3.447451 7.0458136 -2.397306
0.4714117 8.475826 0.028537933
1.1056871 8.785786 0.33769137
0.9461565 5.531371 0.37074685
1.0107307 6.762562 0.5434555
1.2733433 0.25271475 0.462278
-0.17405519 9.346428 1.0084968
-1.7797539 2.1407104 -0.16695225
-2.1914153 9.862364 0.61026454
-2.0902395 -1.8149853 0.79120195
2.0293756 9.182001 0.69074094
-0.13944033 6.2404375 1.0899792
-0.8001058 6.111 0.12769103
1.8286748 0.0874974 0.9506537
-0.6283176 1.5094798 0.68275046
0.17218083 7.7587547 -0.30586946
-3.6262012 6.346756 -2.3833022
0.14516824 4.9302397 -0.25368267
-2.039918 3.382887 0.51566803
1.5565126 -0.3688895 1.3460355
0.69061804 8.404482 0.93259406
-1.657156 5.3590584 0.035062082
-2.9722672 7.7170143 -2.082655
-0.57024837 6.685092 1.4301312
1.6462936 1.7328472 1.0417614
-2.0522976 2.280755 0.86511886
-2.0715356 0.919049 1.1713791
-2.1360507 1.9437146 0.9284452
-1.1823447 7.678032 1.4567583
1.2754307 1.8839438 0.87469196
-1.6340966 -1.1014225 1.4674389
1.1378286 9.839699 1.0726174
-1.0181835 1.5577381 0.34956968
-2.6082468 -4.6109133 0.8612186
-0.47477603 6.045683 1.1325078
-0.26581645 2.506278 0.7100153
-0.20068514 4.481745 1.3816154
-0.7109083 8.791594 0.10065849
2.0182686 -4.6091795 1.2822516
-1.4814241 1.2636824 0.87421477
1.2151971 -0.13112023 0.20419618
-2.859702 7.3119392 -2.5815892
1.925329 -1.4051917 1.3905938
2.3261209 -2.4300876 0.99734294
-1.6813724 3.5544105 0.5514921
1.5112126 10.609978 0.47864705
-3.2575645 7.282345 -2.6705117
-0.55284274 9.320278 1.2091162
-4.131165 6.7162313 -1.5597789
0.18980813 5.3968105 1.1563942
-0.45672208 4.964901 0.7714536
1.120512 8.0527935 0.5764407
-2.0596728 9.908741 0.17996216
-2.6555176 -4.3441343 -0.19046777
-2.781794 6.259177 -2.058797
2.0944672 -4.2648096 0.65861166
-0.85006654 3.0466366 -0.3112656
-1.6316104 1.5734036 1.1469028
-0.1389665 12.954594 0.09479155
-1.6309967 -1.1899154 0.9000422
0.043233477 6.172715 1.8599095
-2.239468 8.9207115 0.8251455
1.3614843 9.043442 0.9244385
1.2403917 9.689444 0.7378931
-1.874428 1.0188537 -0.06442514
0.25471896 5.2385654 0.80515623
-0.34689522 5.210271 1.5031247
-0.98713875 10.002796 0.0015472847
1.8030221 3.4220243 -0.049141742
0.8846861 4.945484 1.6512747
-1.5756879 7.2490225 0.9837321
-3.7368927 7.5883694 -0.14624152
1.967731 -1.6171637 1.0111012
-0.27823317 10.658018 0.3693788
-0.6486963 3.466764 -0.4915545
-0.04879713 11.054127 0.8385062
0.32595277 5.710288 0.9998627
0.61550725 10.205479 1.4352622
0.8467661 8.019562 0.96582294
-0.052955836 12.856266 -0.35698813
-0.08533469 4.1174355 0.4399243
1.2774093 0.7285174 0.17716917
-0.4412936 4.35915 1.6637022
1.6548328 5.2342854 0.44482094
0.8246546 4.454687 -0.18609539
-0.33096635 12.1612 0.09810871
-0.5396161 8.373117 0.7220925
-2.607091 8.532133 0.43176705
0.24762851 10.351246 0.082865894
-0.7664819 12.194426 0.11185092
0.20092332 10.998898 0.09312187
1.8197246 -1.8169701 1.2915268
-1.078028 8.827055 0.12506905
-1.1845605 7.173012 0.16950911
-1.1589141 7.96591 0.8135513
-0.23576552 13.382002 0.8191693
-0.57179284 7.988139 1.738796
-0.39861178 11.320334 -0.12933284
0.043367155 6.3179636 0.14457512
-0.39808208 5.405259 0.78285396
0.18132806 10.240471 1.3755043
0.3739509 10.6766205 0.7530999
1.0473936 3.8478765 0.2670281
0.12306188 6.59046 1.8451226
-0.16779155 10.325506 0.0029522092
-2.3866162 7.9969463 -1.7770145
-0.22239685 6.56466 0.5090326
1.4016323 3.0935392 0.75425005
-0.53197527 8.585691 0.42099625
-1.622443 6.824608 0.86515784
-1.0610847 1.8762648 1.3132832
0.022322532 2.8058186 0.6580268
-0.032646164 10.700876 0.049966894
-1.9189403 -1.3602107 1.1262925
-1.9039454 7.070242 -3.067731
-0.24351367 5.7916346 1.8088837
-0.5996491 4.1726294 0.9060068
0.7114534 3.583808 -0.24745172
0.5944768 6.4259834 -2.8057308
-1.8220747 10.698484 0.613441
0.2849056 4.7968187 0.17589256
-1.7716935 -0.5933418 1.1944754
1.7112799 10.256437 1.0139647
-1.7451868 7.7098627 -2.2282438
0.93425596 10.196129 0.96365905
-0.31241828 10.8381405 1.0747032
2.1186433 8.517817 0.17281008
0.6480242 4.961996 0.21766853
1.3707466 4.531702 0.4496376
0.8474264 4.2247057 0.18174139
0.3369407 7.5995398 0.7247032
-1.9622812 9.095991 0.1878193
2.019215 9.463783 1.1069648
0.94068885 7.3780746 0.23744488
0.9666977 7.9477463 -0.15664056
0.12402304 11.239038 0.5527812
-1.8014994 3.4830666 0.9379885
-2.866572 -4.5777626 0.4463284
0.80454504 3.593449 0.5599215
0.2951761 2.8919482 0.31279153
-0.83843255 7.5994854 0.79092205
0.42918324 12.462673 0.6560391
0.9730332 0.04460953 0.7092322
1.599246 2.8757787 0.42295903
0.15330267 6.082554 -0.54902565
-1.6749003 7.179785 -2.7648344
-1.2096803 8.272066 0.48883277
-2.250815 -3.7117639 0.714177
-1.5988135 9.334583 0.019352484
0.52409565 3.7839675 0.83933234
-2.9145613 6.557683 -2.6549692
-1.3486421 3.0754528 1.2789531
0.87494123 3.5594044 0.95992136
-1.4323072 -0.94309723 1.1680079
-0.4107319 9.91617 0.28412133
0.30506527 3.2548985 1.49524
-0.77024496 7.4367332 1.205306
-2.392085 6.232709 -2.1282
1.6151421 -0.4341941 0.3986597
1.4911013 -0.42929047 0.026637446
0.7688043 8.917524 0.1447039
-1.4894915 4.3136425 0.16971368
1.1986494 3.46342 0.57244456
1.8506074 6.730668 -1.1233335
-1.7006531 1.7538352 -0.2522093
-1.4833884 3.0918555 0.05111514
0.2886355 5.885909 1.3864169
-2.1186166 -3.0815153 0.93282807
1.2516086 2.2187428 -0.3655352
-2.3544445 8.432369 0.6864538
1.2272358 1.1436236 0.123056695
-0.14530009 6.100189 -0.18960169
2.4453073 7.1232176 0.5470803
-0.20568123 6.324978 -0.53278315
0.27481693 4.335061 0.1972225
1.711493 9.281021 0.37108153
-1.6221609 6.44707 0.66695046
-0.14025724 5.527774 0.14062524
-1.8359518 3.852518 0.057556994
-0.85994196 13.1261635 0.3728581
-0.62225306 4.1278906 -0.55409586
0.5750935 6.224393 -0.45843774
-3.0163646 -4.57372 0.0388057
0.70782816 9.911104 1.1505065
1.0426118 3.1701164 0.8886162
-1.8216989 -2.2643676 1.2479367
-1.2274363 3.9916797 1.1408508
1.735954 8.971708 0.7921897
-2.2443376 10.501858 0.52344537
-0.88141835 9.859634 1.4919615
-0.32825106 6.4058065 0.16219997
-1.9413366 8.315594 0.36229134
-0.8732647 8.74028 1.5442984
1.1611238 8.664421 0.99396217
-2.3938713 7.480503 -1.8000803
0.45139688 7.8917027 0.44932058
0.30359125 2.2121286 0.528069
-1.5161848 -1.3882895 1.2203395
-1.0506957 10.277578 0.5655073
0.6337677 9.236511 0.9078157
1.5851038 9.5996475 1.2308645
-2.223968 -0.8256477 1.3068154
2.346487 -4.60843 0.09239113
-0.8214114 12.687164 -0.118450165
-2.8421378 7.0752935 -2.2213912
1.8549862 0.92446625 0.57977605
0.08067532 10.088543 0.67228127
1.1993909 3.0791483 -0.46360177
2.825244 7.1670485 0.66069174
-0.24027258 4.0628805 1.5029824
0.06942792 3.9611588 0.88404346
-0.045164622 10.108238 0.28367007
1.2143652 3.9438548 -0.4618519
0.46100044 5.923586 0.67853713
1.7498932 8.593966 0.558717
1.4533465 9.443041 0.11525938
0.08447944 5.02489 1.86111
-0.5241209 11.841417 0.2963251
0.77742016 6.1467943 -2.3389153
-0.7471738 1.8537586 0.02424891
1.4639888 3.7456956 0.78139055
-1.7010477 5.74564 0.5452503
1.7958298 3.3279653 0.78552806
0.377737 8.890767 -0.17181852
2.402154 8.575169 0.40121055
-0.05095484 8.864508 -0.22785074
-1.6915572 10.155931 0.21516174
1.6614511 2.4414682 0.46242183
-1.5144727 8.336784 1.1566384
-3.921618 6.440214 -2.1717973
-1.5368373 4.7431393 0.36815268
-0.6607778 12.159866 0.5263852
-2.071587 10.47661 0.85591686
1.0056951 6.36963 0.41998333
2.2273107 -4.6558266 1.602577
-1.2455952 8.627764 0.74723923
0.9533012 7.941254 0.2425636
0.46959442 4.1554966 0.9454206
1.8130181 2.8132772 -0.12353313
1.0317285 2.456448 0.6648098
-0.33500862 5.598115 1.4890609
0.062641546 4.374607 1.6360359
-1.1781011 9.003897 1.4855659
2.2442856 -0.84656036 1.0771651
1.8794472 -0.36534077 0.07123008
0.6363715 9.055248 1.2692168
-2.3159232 -3.9600859 0.41389227
-0.24317756 3.514721 -0.37976807
-0.5737746 7.4399357 -0.29749954
-3.103591 6.881873 -3.2345147
-2.3718443 -4.254822 1.4721749
-0.2832253 3.8040032 0.24343824
2.135107 -3.697711 1.1499422
-2.1991634 -2.3092942 1.2451854
0.12158574 6.9109373 -0.39365578
