0.7024206 10.360233 0.2955705
-0.069742694 13.641487 0.69446087
-1.7596469 2.3272145 0.9465067
-1.4286306 1.7899742 0.49377805
0.7932106 9.379644 0.3353387
-1.1802366 6.2280025 1.0262518
-1.2779956 7.285553 -3.0715585
-3.213758 7.1241903 -1.1533175
0.36655927 5.45494 1.3103657
-1.1574578 0.5917046 0.28743917
-1.2146142 7.2122364 -4.0419264
-0.52759147 6.7554474 0.2907918
0.872015 4.194916 -0.49947834
-0.22333315 7.7747936 1.2423782
1.1684778 8.640282 0.025637522
0.87784123 6.334795 -0.22689903
1.0347455 4.5268364 1.5195074
-1.2727017 4.321533 0.7162914
0.7902849 3.2065887 0.53917396
0.07753898 5.770526 0.51808894
-0.0038048774 4.192423 -0.25685173
0.31475157 6.2850237 0.83529127
0.58939815 3.0844426 1.3628528
-1.2393152 3.3277507 1.4477115
-1.3148103 3.4586635 -0.05022213
1.192133 7.83418 0.91901696
-0.0678398 3.7025747 0.4896955
-1.6619904 8.243782 -2.4104729
0.23498803 7.725457 1.7640052
0.40891683 5.608325 -0.11021301
0.598572 7.8177433 1.2983444
0.24303082 13.5768585 0.09699421
-0.4162169 7.0435696 -2.9559922
1.8132193 -0.08399773 1.4273856
-0.47808343 6.133092 1.8717318
-1.1611314 5.4543734 1.0850303
-1.6724477 1.3174446 -0.21706268
-1.2786486 9.5326805 0.34804463
1.6137435 8.581297 1.0898752
-3.0912328 7.8911285 0.45280886
-0.79442656 11.06546 0.71418405
0.64418805 4.624324 1.3380122
-2.1111407 0.7142369 0.9438348
-0.54898465 5.6682396 0.13733569
-1.2853112 5.842333 0.9041519
2.2904048 -1.420589 1.11606
-0.6629473 1.9806311 0.81605244
-0.18499863 6.866091 1.2490191
-0.8136281 5.2725067 0.16032785
-1.2136972 8.2400055 -3.0425653
-0.7638459 7.4729815 0.38939744
-1.2918127 2.6288242 1.328721
-2.0159483 7.1987495 -2.4574265
-0.62299037 9.599737 0.9298028
0.14800856 10.392212 1.0266035
-1.778924 4.600832 0.86582863
-0.32473904 7.095195 -0.37161463
0.05849891 10.448452 0.5741031
-1.1314104 6.936125 -2.909976
-1.5456951 3.2942843 -0.32683635
-1.6943488 1.9487543 1.0811646
-2.3450284 -0.66028464 0.99811244
-1.0819168 1.0199378 1.1710489
0.19191495 9.28191 0.9345052
-0.37678903 10.915773 0.14442185
0.67687964 7.7083683 0.11173463
0.06579237 13.2361145 -0.0724843
-2.1523037 2.9465284 0.5190934
-0.98502016 8.405708 -3.5382452
-1.4956124 7.815365 0.082696006
-1.3526659 4.8964577 -0.3319655
-0.42185235 12.448086 0.47986698
1.2295355 3.4798398 0.9518974
-1.9734879 2.4726343 -0.10450922
-1.0188503 3.8665562 0.5397093
1.2306557 5.6925735 0.547874
-1.0065091 9.868786 0.83189917
-1.1256509 8.365 1.1886339
0.058014452 3.3751435 -0.35178322
-0.80028534 13.402012 0.51464176
-1.0061431 5.771261 1.6069758
0.8307009 1.6492577 -0.20878613
0.0014245328 9.140524 1.3239663
-1.0576868 4.6747437 1.2751131
-1.7466035 7.579895 0.6789309
1.1288927 8.271873 0.9068544
-1.1891699 6.113145 1.4505477
-0.99450576 4.6624584 -0.107377395
0.63332736 8.212595 1.3169544
0.22798395 13.172447 0.28277367
-0.45543635 4.984392 0.06467906
-1.0873816 9.867493 1.2096965
-1.2990215 6.4826717 0.43858147
0.8323827 9.741318 0.07761806
1.5237949 3.1669216 -0.29006243
-1.3440032 8.222433 0.87822556
0.38669878 10.654381 0.40027654
0.54957485 1.1194391 0.23686776
-1.4866407 1.2387555 1.3265661
2.3049092 8.48901 1.1077756
-0.04156412 9.617939 -0.08486256
1.073298 7.1787586 0.5510495
-0.058408484 7.57985 1.579287
2.068408 -0.41994458 0.4760614
2.2048907 -1.6257176 0.72645795
1.4548395 2.9359617 0.05727621
-2.553399 9.662777 0.5655422
-1.364193 9.990959 0.19304675
-0.89991736 7.338745 1.55795
-0.86015475 3.8384962 1.1942382
-2.2395387 0.37154713 0.3305624
0.043958932 12.446434 0.5199003
-0.00179786 9.752226 0.40111393
-2.5305338 7.559638 -2.928409
-1.5346591 0.255624 0.86873674
-0.2936275 6.720072 -0.4723183
-0.56282055 2.3371477 -0.08596775
-1.9837263 0.32886416 1.1146817
0.28864634 7.559699 0.011500775
-0.649878 10.0857315 0.80000126
-1.7632475 0.95702624 1.1882856
-2.8399882 7.7998657 0.12914753
1.0770304 7.0205736 1.2788317
-0.45230985 11.79756 0.6686498
0.6965097 5.2583036 1.6921744
-0.47775435 2.8017874 0.41773242
-0.28256696 7.2631884 -2.7271624
-0.3855785 2.4139671 0.25347537
1.994683 1.4688945 0.27940583
0.34009486 1.8728254 0.25804746
2.329887 8.92975 0.9896004
-0.14795804 4.881442 -0.62199235
1.7595255 2.1318293 0.99773985
-1.0925121 7.4484596 -2.425902
-3.2276406 7.643756 -0.4790284
-1.4963295 7.593547 0.38906223
-0.6513179 12.0265465 -0.38431555
-0.9239855 10.642181 0.88166046
-1.3786919 -0.40101075 1.1365025
1.9476388 7.550087 -0.48875958
1.5906267 0.54544413 1.1379046
-0.5000689 7.366847 0.68751574
1.038563 7.173196 -0.113572955
0.29516375 5.3234262 1.6934257
0.64807594 8.124498 0.14663532
-0.0023951498 4.7591953 1.4863293
-2.1150289 0.69322455 0.1330857
-1.083493 2.3048425 1.3107543
-2.1814837 -0.9642283 0.85734487
-1.0330625 3.602501 0.8913723
-0.27639562 8.061386 0.81034267
-0.35992825 8.536411 1.062504
-1.6433287 10.58865 1.06599
-0.90952826 7.5508146 -3.0937748
0.43408006 8.955309 0.93410087
2.0863543 -3.8845372 0.7690811
0.69992197 3.8399634 1.1844447
0.4575523 6.393255 0.095629364
-1.9907484 3.5322328 0.16629276
-3.3104296 7.304434 -0.48442626
-1.8526816 1.2331233 0.512113
0.9498073 8.61306 0.66426826
0.9356258 5.5862265 1.5921037
1.1184132 0.035736784 1.10126
-1.1410067 3.0486736 0.00790404
-1.3568308 6.833291 1.114342
-1.9100688 10.467283 0.42819953
-2.254064 7.009486 -3.474977
0.11894417 9.568039 1.2740719
-0.6681317 12.781494 -0.3765633
-1.5769181 0.82245755 0.18570378
-0.9909396 6.609803 1.1545599
0.13927665 5.7163715 1.7348108
0.92824984 7.2539024 1.6183951
1.9956949 7.2478065 -0.17371571
1.2415936 -0.09292336 0.58487916
-0.08446868 11.643606 -0.7195902
-0.11908555 3.5951066 -0.082541004
-0.22146368 6.141823 0.4328848
0.27306163 7.2484264 0.6647301
1.232615 5.2687235 0.73321044
-1.9030771 8.694056 0.69863546
-0.45315218 13.137238 -0.45896453
-1.4716563 5.5378227 0.3480922
0.85209906 3.0053525 0.1509768
1.4944565 2.767089 1.1120522
-0.49154752 7.621524 0.04698848
0.5065839 13.230322 -0.070494816
-0.16820207 8.363947 1.61814
-1.5780365 3.3688173 1.2169905
1.2532074 9.788343 0.17310324
1.9237583 -0.77381706 0.35207617
-0.8571801 6.9280863 0.08331086
-0.5153185 11.387501 0.60151696
-2.0560288 9.420013 0.48064595
-2.6910944 8.917355 0.7319517
0.35558462 7.3786974 -0.35267758
0.9991176 7.833289 1.3091884
-0.33475596 7.436392 0.3533823
-0.6955688 4.818057 1.1285281
0.9990585 5.262622 0.057970494
-1.1040075 2.609128 0.56383896
-0.88839805 12.637766 0.43981308
-1.0962274 4.1265287 -0.46160972
1.2057385 3.1101875 0.28588635
0.35710025 1.8508139 0.64366984
0.83090305 7.6152477 0.96902955
-2.9412355 7.016966 -1.3891051
2.260769 -3.9331398 0.38317835
-1.724232 7.2120523 0.7521957
2.691647 7.4638467 0.3980748
-0.8489568 1.2557139 0.92162097
-2.4047995 -4.5846615 1.2921677
1.5048492 6.3065023 0.83119357
-1.6989245 -0.6649504 0.9150373
-0.26012832 12.49427 0.8126627
0.8862517 2.8631206 1.1678536
-3.1077561 7.149435 -0.18497431
-1.4954844 8.888691 0.73263025
0.7471336 9.825827 0.48291284
-2.1355057 10.221619 0.29008228
0.10979165 9.409113 1.6406221
-0.74973094 8.440535 1.1965446
-2.5223908 -3.9183226 0.7355585
-1.5310833 6.44386 0.9948534
1.5483019 5.507701 0.81003785
0.06951329 10.877684 0.56995463
-0.91925883 3.4709268 -0.12936324
0.4265337 2.6283646 0.6099019
-1.8304279 -1.4461577 1.494252
-0.32025775 13.56332 -0.38200837
2.037684 10.2800255 0.5665457
-1.1319664 5.786134 0.5092417
1.0151958 0.7613752 1.1440845
0.1800791 4.86714 0.7348988
-1.4008986 7.8826914 1.2506213
-2.883442 7.0985293 -0.9713135
1.5095465 0.90915716 0.15152663
-0.12504873 8.823095 0.41155237
0.30751246 2.4520378 1.1697881
-0.93138146 9.170984 1.2917471
-0.00080318353 3.9681535 0.08726795
-0.7082782 5.3097506 -0.47757655
-1.7708545 9.834085 1.2439346
-0.12621978 8.1872635 1.2391343
-0.8418951 4.300062 -0.18148127
0.24626032 12.896019 0.5736449
2.6435008 7.272357 0.08906788
-2.2334898 -0.009205753 0.1193447
0.8706976 8.081654 1.6356554
0.60437703 2.8860507 0.371588
0.47088933 5.538126 0.5732343
-0.61818683 3.1989913 1.2966509
-1.0518613 8.540852 -3.2169147
-0.63394284 5.8711424 1.4405167
0.602759 6.5511885 0.7579415
-0.26256043 7.850919 0.32376385
-1.959754 4.6318216 0.48098713
2.2434106 7.9159546 0.734494
1.8543086 8.795452 0.8003886
1.3105955 3.7944975 1.3116002
-0.17714551 11.916542 -0.36896372
-1.7509211 9.911135 0.87443763
-0.13323441 5.5527573 0.81207407
1.0554714 1.5693138 0.108422846
-0.3719334 2.8480124 0.8160783
-1.172106 0.6200098 1.0839205
1.4636109 7.0725794 0.6181413
-1.675272 7.17529 -3.6022568
-0.93683255 7.1398306 -2.6393385
0.14573386 8.043436 -3.1043844
1.8656704 1.3522539 0.843416
-0.5238657 3.5231795 0.50309014
-0.62184966 9.136431 -0.19374746
0.58586764 7.107444 1.6733334
-0.16220564 12.097059 0.5801556
0.11565776 12.352947 0.16385972
0.75507355 5.7082806 1.2895887
-2.0385537 -1.0856287 1.5214033
-0.30017298 6.5884705 0.98136044
-0.04894176 8.216902 0.12512407
-1.7300339 7.2063513 -2.749765
-0.5675616 8.779322 1.6956768
0.13939166 5.9627123 0.13201824
-0.79514647 9.188328 0.9166781
-1.1394916 8.020079 0.17275505
-1.6736345 0.55655825 1.0673988
-1.8239784 4.607319 0.08973965
0.17920169 8.67017 0.63297653
0.59477866 12.874416 -0.037397124
-1.6836243 6.7474546 -3.5991778
-0.78933215 5.515232 -0.11995873
-1.9008459 1.3083823 1.2931895
-1.7573333 2.8148441 0.37433046
-2.8453226 8.584366 0.44567025
1.2283502 4.8729353 1.3693552
0.45915926 10.363758 0.67800283
1.8508024 10.489096 0.8108256
-3.2635722 7.60832 0.26166338
-1.0066402 4.868844 0.8783567
1.0049529 10.085371 0.25529397
-2.0003219 -1.2488172 0.738207
1.2831712 6.742388 0.313011
1.1609204 10.791651 0.77422726
0.74247444 8.211592 0.56091475
1.3038949 3.4110553 1.2913129
1.5636055 3.1872716 1.0590489
-0.0009799139 8.373846 0.90870404
-0.951295 7.5518866 -4.0605307
-2.2254457 1.8135872 0.4490502
-2.800354 -4.546817 -0.7180867
-0.7538079 9.0947 1.647825
-2.1762524 -2.4648967 1.2945256
1.0234113 10.105602 1.4827816
-2.0777836 3.8522248 0.447594
-0.3280866 12.806744 1.2271142
0.9630623 0.41660875 0.8852074
-1.9823644 -3.920681 0.82190454
1.3946662 4.708249 -0.18196219
-3.2937016 7.420517 -0.8731952
-2.1491172 1.458748 0.289281
-1.5302515 3.1212382 0.710467
0.62329805 4.5662374 1.7310388
-0.89466786 3.4119244 1.3304269
-2.2947178 -0.0042001633 0.89082336
-0.45500338 8.503588 1.4166384
2.1561298 8.64534 0.62162316
0.8978227 5.0850773 -0.4002902
-1.2629073 6.6089716 0.7825639
-0.09878892 13.75167 0.30615258
1.1433661 4.2445755 0.91872597
0.02920581 5.656865 -0.5913302
-1.6206622 2.6900945 0.7177452
1.1746294 4.951969 0.9791316
1.5191553 10.226414 0.71663153
-0.77205086 5.5737495 0.43061596
1.0675862 8.784805 1.4341562
-1.5022168 8.538744 0.106582746
-0.9191978 8.300037 0.8510003
-0.4375034 2.171784 0.57423246
-1.1844871 5.5383596 0.046805352
0.3674317 3.025496 0.66519535
-0.6139518 6.3811674 0.44686425
1.5642352 8.962538 0.5655228
0.21763733 3.6167474 1.5223379
0.5893371 10.010838 0.8450713
-0.101054445 7.3091526 0.7014122
0.072271794 7.930228 0.94262695
-1.8811212 -0.74146616 1.6026633
-1.1586192 0.23715377 0.5445131
0.10084535 11.451635 0.010220619
-0.9603578 3.4490066 0.58117867
0.95901096 7.458153 -2.0114837
-1.2085121 7.83426 -2.5300822
0.30115378 9.939787 1.1515067
-1.4574721 5.288578 -0.21889186
1.4759293 9.771044 0.5651151
0.48805496 5.966338 1.0533805
0.7094351 5.328577 1.3325663
-1.0308096 10.271282 1.0942013
1.2134368 -0.8239659 0.28924668
-2.1418371 -4.5849276 0.9165783
-0.18769798 12.978474 0.89095867
-1.0285811 6.7734375 -0.23603797
0.072568744 5.1947746 -0.61074317
0.5754888 1.1326864 0.6568713
0.27540016 8.476927 -0.20415905
-1.524765 2.085525 -0.2887748
1.3064022 4.9085264 0.5706388
0.23483881 6.566905 0.51592755
0.27946526 9.042816 0.5797446
0.49675524 6.027749 -0.108569816
2.0036225 1.8892527 0.41305238
-2.2926655 6.8099203 -3.1255684
1.8034446 1.0767145 1.1437964
0.85702217 7.7646093 -2.0928292
0.13672283 4.2214727 1.1557698
0.46004093 9.220081 0.24173847
0.88556397 -0.7500732 0.5923461
0.5153159 13.392132 0.2883591
2.0841126 -4.1831646 1.045032
-0.71625733 2.4538522 1.1995509
0.6682935 7.0317707 1.2970078
1.7997153 7.2147884 -1.0237105
-0.4917102 2.4133863 0.92044616
-1.025626 2.707561 1.022773
0.91235006 4.829237 -0.051457286
-0.8833592 8.224602 1.5599551
1.0965908 9.612833 0.46802157
-0.14137372 7.9885025 1.6206434
-0.5894662 7.0477047 -2.5277395
0.32794672 12.6259 1.042422
0.08148959 8.612757 0.14373201
1.0875952 3.8315015 0.609406
1.25909 5.672328 0.08217919
-1.8546064 0.45903593 0.6619823
-1.0938342 7.319254 0.5511856
0.4560352 4.3985367 -0.5294324
-0.41459662 10.05057 1.1232588
-1.857157 2.3971415 0.5428598
0.9304507 2.3118982 1.3222408
1.1606894 0.16758421 0.0692873
1.9808855 7.5933123 -0.89240813
-2.3013601 0.0038695012 0.5195632
-2.2191339 2.5420222 0.5513524
1.2284226 1.4869013 0.85657024
-1.1450326 4.055087 1.5640552
0.6188637 3.6508408 0.123100445
-0.53040135 3.8031716 -0.5433357
-0.005240756 13.626776 -0.1813842
-0.70276415 3.039032 -0.016510852
1.7070978 -0.9647566 1.4663706
-3.3353329 7.4712143 -0.114335954
-2.0451207 -1.8227177 1.4230995
-1.5818911 6.156087 -0.046892963
-0.055150628 3.7834568 -0.45627624
1.5106568 8.586834 0.29597718
-1.3630376 4.736864 0.67992485
2.0260725 -1.2651134 0.636963
1.1195512 6.6125755 1.3062716
-1.6649408 3.9860158 0.456034
-1.4935353 9.051727 1.2539079
1.6785421 9.723406 0.25341243
-0.52469325 8.122082 1.0980579
0.39381552 9.248499 1.2915273
-1.6962073 8.285584 -3.6990118
0.62164235 3.5111222 1.5077803
-1.1557963 9.691542 0.006867348
2.2031393 -2.1430712 0.7557082
0.42188734 2.5268517 0.24022403
-1.4749594 7.47642 -2.4356813
-0.1291464 4.758465 0.0591693
-1.0680368 10.180998 1.501595
0.05781214 7.6162443 0.3321994
0.6151941 12.690733 0.3821125
0.6246568 7.2674675 0.056750573
1.7416811 4.0128307 0.8291278
-1.6536713 8.01807 -3.482492
1.2417138 2.2567186 0.35500008
-0.81025624 13.146376 0.89897484
-1.3772614 10.097357 0.9776008
-1.3495159 7.142597 -2.6149864
-1.501075 2.309476 1.2596223
-1.0937946 3.0646305 0.6623219
-0.18476048 11.463406 0.7750319
1.2459183 6.2338037 1.1207166
-0.32250172 13.287773 -0.08757463
1.0844796 9.427835 0.035205692
0.8969768 1.5242443 1.1189497
0.9215981 5.0595303 0.38711083
-1.4027257 1.9967134 1.3368144
-0.6528157 3.4730573 0.9528239
0.96155965 4.620694 1.1003594
0.7303506 1.8077719 0.79867256
-1.9151251 3.1244025 0.7191696
0.8504808 5.380581 0.6338364
1.0526545 10.738001 1.1541154
-2.8720794 7.1705675 -0.4850433
-2.288725 2.1549802 0.63645184
-0.9163871 4.484088 0.93365717
-1.040123 7.782778 0.51847553
1.1658261 6.7473373 -0.046087697
-1.5637724 4.527135 -0.24221802
0.69563234 9.3786125 -0.064420745
1.3541379 7.5898046 1.1914179
1.5428872 0.63612247 0.46717614
-0.44994342 5.4218874 1.8938847
-1.9487693 -0.79157877 0.60307646
0.069887295 4.5785723 0.41512
0.86921203 8.462734 0.26305884
0.4029492 8.822269 0.2716112
0.2614125 7.049917 1.3977375
-0.2906754 5.976448 0.121435195
-0.36391234 9.576103 0.24365902
1.5086296 7.4588137 0.7967726
0.5193367 2.8078718 1.0148644
0.32502317 5.19048 -0.07729785
-0.34356058 8.924292 0.101710096
-1.4746232 2.703059 0.021007806
1.0941706 6.4896183 0.8369689
-0.9462093 5.573841 0.7813239
-1.250823 5.9988394 -0.16066003
0.20597982 7.306242 1.7652202
0.46893877 9.145664 1.6751499
1.3038046 8.013788 1.2916639
0.8301475 9.691015 0.86026967
-0.12329718 12.338549 -0.46788418
1.5232708 0.26956826 -0.17299333
-0.9389502 8.473696 -0.21224076
0.42237824 9.64823 0.30379784
-1.7787564 7.874922 -2.8730412
-1.7147485 9.776203 0.49469393
-0.26412827 9.93075 0.74975157
-0.5960493 7.8966627 -0.23829013
1.0570157 9.039015 -0.026460141
-0.16204771 12.632038 0.12892377
-0.2346831 4.912327 1.129065
-0.07921551 7.2455673 1.3743155
-0.40498638 4.5486803 -0.6133256
-1.926292 -4.6075745 1.3221784
-1.5860324 9.721098 0.13435557
-0.042937584 13.18597 1.1702282
-0.7172947 2.643211 0.12603188
-1.2312884 4.2978563 -0.05108691
-1.1156698 10.740255 0.52930653
-1.4025557 6.962929 -3.3321753
-1.7252421 3.702455 -0.20692417
-1.8750994 9.091198 0.66995835
1.5023732 9.915781 0.9756383
-0.7659154 7.067087 0.43734986
-1.4573941 2.466363 0.43326038
0.48440182 3.2905898 0.2827037
0.16609856 2.7645998 0.94623804
0.7523718 6.2035456 0.7892698
-0.9286406 4.0846767 0.16970894
-0.9655533 8.975346 0.58327675
-0.7802602 13.103033 -0.16153693
-1.4068844 0.9602151 0.52018774
-1.1321967 5.079055 -0.025187906
1.6030173 4.5660133 0.14775012
-1.6732366 0.27605915 -0.115070194
-1.171159 7.7970314 -2.116961
1.371825 6.3210106 0.4483288
-0.39650762 4.8439655 1.5219383
0.45061696 1.4996433 0.7616074
0.034751564 3.445962 1.195869
-0.90776145 7.662939 -0.20996907
0.51061165 10.294046 1.1246595
-0.70783734 6.923667 -3.602975
0.23253325 5.5043116 0.22232479
0.7873399 10.951614 0.8723037
1.12662 2.5721393 -0.3912589
1.9612801 -0.09304495 0.30924302
-1.0321786 0.947278 0.77463996
-1.6652126 2.901554 -0.29403746
1.6246619 -0.8102776 0.08055079
-2.6903434 8.539721 0.10770276
-0.7420157 12.392796 -0.19705057
-0.94684315 8.015852 1.2036614
0.53751385 7.9230957 1.659436
-0.9385866 2.6776419 -0.22973308
-0.5677614 1.7853034 0.4797024
-3.132639 7.7886257 -0.05082605
-2.188407 0.32962543 0.7328185
-0.4108796 7.119561 -3.3310747
0.2665218 12.095015 0.49780828
0.83457065 9.365889 1.6306379
1.7207444 7.553053 -1.2060299
-0.44914877 7.6610394 0.9519663
0.5391828 5.6758575 1.6558065
-0.84313726 13.361153 0.12575056
0.023049004 7.2080317 0.3115651
-1.0162916 3.0229845 1.3761141
0.1484048 2.6166277 -0.0497062
1.7598724 1.4188657 -0.020488895
-0.42946666 5.3669996 -0.11940245
-1.2705994 7.8621235 -0.20839167
-1.7160549 -1.7326813 1.2609313
-1.6501327 7.2774153 -3.9988637
2.151616 9.227692 0.25932312
-0.2609254 5.9167967 -0.55186725
-1.0950928 7.4627266 -2.7973456
0.65407073 3.9680948 0.4692666
1.2332287 5.315778 0.36092722
2.1648536 9.725422 0.9631319
1.7945075 -2.141417 1.1137731
0.20944116 6.9194975 1.7745531
0.5095111 8.746138 1.6691344
1.4183116 2.7978325 -0.3449691
2.2107038 -3.0363164 0.8195245
-1.8001041 1.6430866 0.35340056
-2.2860103 7.482109 -3.2313657
-1.2627063 7.233223 1.4200928
-1.4336493 0.26111048 1.3037131
0.16247869 12.260185 0.91598344
-1.1634796 7.172282 -3.5816388
2.0677538 9.628311 0.29932988
-1.1253891 7.235958 1.0160666
0.0022140848 11.953709 0.2620538
-1.3561087 0.24396077 0.19033697
-1.1576838 7.6076145 -3.3571625
2.2760963 7.2022495 -0.42140478
1.1819484 1.78427 -0.29115558
-2.5173573 8.267212 0.57646227
-1.2788978 8.684174 0.45977968
0.19157302 2.4150662 0.7704674
0.61445105 6.090472 1.3843455
-1.000785 3.706132 1.5494077
0.25793856 8.349829 1.3786554
-1.0511847 1.8336654 0.673115
1.952518 0.66255105 0.36124682
0.92600954 6.845745 1.6075268
2.5146012 8.619507 0.84354126
-1.3111444 9.331366 1.3693633
0.7987349 10.665327 0.5657426
-1.3495545 7.063387 0.7574098
-0.74772286 8.736856 0.86658204
-1.7071798 3.228219 0.3800859
-1.1862173 6.919777 0.4453166
2.616943 -4.031906 0.23386288
0.4037701 6.911995 -0.3913266
2.2411056 -1.1671863 0.86832666
-2.6630492 -4.271617 0.6670804
-0.26750672 8.69833 0.75286233
-0.87595356 3.1402583 0.9795861
-2.0767517 -3.5540566 1.2093868
-1.7606578 8.86874 1.0414069
-0.86758196 2.7021527 1.3784728
2.123736 -3.1635795 1.150841
0.18158036 3.6247587 0.1651929
0.7777947 2.4659991 -0.36743873
1.575645 1.413708 1.1731563
0.54763675 9.400898 0.6512679
-0.33784497 4.500865 0.37708724
-1.688168 4.938833 1.1033411
-1.4202662 0.8934941 1.1411219
2.7484007 -4.644043 -0.16417605
-0.2815283 3.2045221 0.5954726
0.25841296 3.8196054 -0.22050932
-0.4715443 8.145771 -2.8828564
-1.8311672 -0.36287385 1.5868509
0.32671005 8.33437 0.32472682
-1.1589711 4.9558887 0.37051314
0.48951 12.359409 0.388516
-2.728077 8.956619 0.35220194
0.87410545 1.3610885 0.7568463
1.3068984 0.6584778 0.8140162
0.8297492 10.497265 1.3997893
2.0660095 -0.13050103 0.7545942
-1.4543395 7.508934 -2.0633106
-0.5697994 4.105114 0.4669596
1.9524271 2.2671356 0.30105662
-1.7519774 10.225578 1.1848369
0.20821434 6.1573915 0.45525503
0.7186235 5.5031157 -0.41940188
0.8747319 4.9251738 0.7452277
-0.88483906 12.766537 0.8349054
0.8216455 6.7536097 1.0143075
-0.33457512 9.140888 1.6018836
-1.3314552 6.759121 -2.4640164
-0.9191774 4.2644434 0.5622361
1.4979458 -1.4810615 1.1411538
0.07978997 6.5933514 0.98688376
1.2797458 3.777351 -0.0013111406
-1.3791382 9.665909 0.7140254
-1.9901459 6.7744503 -3.4319987
-0.52623475 12.490326 0.10090725
-1.8112335 0.6414572 -0.17257649
-0.65990424 8.874208 1.2702689
0.1324862 3.5781627 0.8444662
0.36906815 8.137268 1.0697882
-1.6101575 8.1385 -3.1140308
-0.07084243 7.345564 -0.37428325
0.34896672 3.6675162 0.47653842
-0.8024088 7.3488083 0.04819931
1.8332326 9.871201 1.2008154
0.43704307 7.4421854 0.35124528
-0.36216342 12.207436 -0.18132016
-1.3338158 2.827345 0.88666666
-1.699538 6.894099 -2.4302983
-0.14948772 7.367259 -3.0863109
0.7184715 4.7055473 -0.53683126
1.9225011 -0.74116766 1.04234
-1.1136189 3.672192 0.19579756
-1.1018231 5.330803 -0.3245253
-2.1041346 7.148077 -3.0694761
-0.31605327 3.9076757 0.7134
-0.30509007 13.718401 0.0021725432
0.7332231 9.018572 0.5910958
-1.9766691 -0.35336578 0.48677582
0.9096223 5.967211 1.0551958
-1.2213635 6.586829 -3.2139535
0.8058487 -0.30822748 0.5189655
1.4411983 8.998877 0.17999643
-1.3651416 3.673409 0.45770007
0.06498967 12.6989 0.8295821
-0.7950642 7.164318 -3.031376
-0.921432 13.005234 0.20552051
0.40240252 12.110119 0.10874407
-1.2569444 -0.094200626 0.8063458
0.67539716 5.2403507 -0.14328527
-2.3240485 -3.8420167 1.0978754
0.81630504 4.0292816 0.8159939
1.0915463 5.2255726 1.4498534
1.4333136 10.008984 1.3748107
-1.3522522 2.2693086 0.05237312
-1.9625993 1.4248526 -0.006328608
2.0950236 -1.6544328 1.3536341
0.6979636 0.38172126 0.53627026
0.25706846 11.944733 -0.51302755
2.3703322 -3.6519303 0.6145226
1.4728992 -0.16072688 -0.078933924
-0.2358996 8.084944 -0.27016896
1.7035208 -0.10857107 0.6431687
-1.1542625 1.9816506 -0.25854373
0.16252825 6.232815 1.3257742
-1.48926 5.690671 -0.1579687
-0.8848727 9.441942 -0.09957643
-0.72982645 1.578045 0.21071756
-1.3969014 8.488951 -3.4672732
0.7846434 1.2454877 -0.09764528
1.5452619 4.9867916 0.08987264
-1.1922364 1.9121978 0.16501063
0.20061508 4.596998 1.8392954
1.2022102 7.6604204 -1.8587234
1.4718609 7.600588 -1.5072227
1.6400955 7.400999 -0.82057023
0.1948004 4.109333 -0.56808317
1.0869899 5.5040474 -0.24346143
-0.7080333 10.817333 0.43096536
1.1075978 3.170735 -0.1430391
-0.68485045 6.536831 -0.35148156
-1.006227 7.5502043 -3.7110252
-0.5505246 2.0453308 0.17912832
-1.3017344 6.143526 0.63357043
1.7436318 0.66216385 -0.020441458
1.2375696 2.0589685 1.2629595
-0.60044384 8.383753 1.7554634
-1.0916853 5.0749855 1.6296241
-1.3322434 2.423799 0.8936517
-1.5181639 7.36047 0.05434671
-1.6549146 4.9395456 -0.0676465
0.6664032 2.2010312 0.18773401
-1.6393745 8.520319 0.9581809
1.2274532 3.0520496 1.1734388
2.6386395 -4.583869 0.26057172
-0.4612159 9.536909 -0.12505488
0.4503724 9.59354 1.0417233
1.9036508 0.27087373 1.3020484
2.0331798 8.710979 1.1205432
-1.634973 6.5060415 0.23344097
-0.18907419 11.6050415 0.35021436
-0.93914056 6.6687517 -3.4508953
-2.982821 8.1827545 0.1640456
-0.89657235 1.6861103 0.9816624
-0.10387455 6.566654 -0.17121565
-0.92115057 4.703951 0.5650946
-0.051521216 13.322712 -0.4609555
-1.6364093 -0.27933484 0.7772484
-0.6651521 6.8123245 -2.8205457
-0.8051201 9.576221 1.2717557
-0.8577081 2.0056224 0.42040604
-1.1892555 0.9057994 0.023664694
-1.4834042 7.377696 -3.3638797
-1.3948975 0.6816652 0.788334
2.5002036 8.118151 0.39510483
1.5509799 -0.72274566 0.4406612
0.8004577 5.995307 1.666641
-0.19671743 11.493408 -0.26830816
-0.59149444 5.902815 -0.17154127
-1.811259 7.946924 0.54013264
-0.826653 4.853242 0.18018767
-1.5120816 6.0849123 1.193877
1.3988543 7.1528873 1.0794101
-2.2494636 1.3787308 1.0583944
-1.0591378 6.875682 -3.8134398
-0.5299883 13.2004795 0.25496662
-0.45669526 7.5369406 -2.454795
1.0888603 -0.49908268 0.37680483
1.244436 5.5410557 1.2510641
0.72433627 3.258741 -0.10990664
-1.5360324 8.424946 0.5664331
-2.6541586 8.1682205 0.16278479
0.10392903 3.3011932 0.48649615
-1.5275326 9.268967 0.9184542
1.174022 8.960842 0.73946404
0.5572572 6.552784 -0.34805024
1.2471497 10.411493 1.325695
-1.2837334 -0.11452061 0.3940394
-2.3276768 -4.591238 0.4493366
-0.9991561 6.512699 1.5530725
1.4217639 2.5011053 0.02481419
-0.6099895 4.715599 -0.26592976
1.430614 0.6839299 -0.23028338
0.39484972 11.0454235 0.95907915
1.4964585 1.5587025 -0.25408632
1.4395938 -1.141274 0.90566766
2.3022342 -4.2833433 0.2578761
1.7790394 -0.00541142 0.00028507673
0.581087 4.5529213 0.10963933
-0.73764455 7.8745193 -3.8752131
-0.46748033 8.087515 0.07437916
0.21053883 8.141748 1.7376249
-0.48256338 3.8333182 1.0790939
-0.94153106 2.282228 0.16772999
1.6790197 0.8549373 0.8453833
0.5742823 7.490691 1.6735847
1.6768172 4.801507 0.41922617
1.4200606 2.357705 1.0976517
-0.13667762 7.4037914 -0.017880987
-1.732178 7.4281626 -3.070025
-2.6806164 -4.1860027 0.2890396
1.7361748 2.899191 0.8249227
-2.014505 -4.260496 1.5528226
-0.60319114 7.5389795 -3.8268251
-1.2852464 -0.670485 0.8994733
-0.87818456 3.3161578 0.24161837
-1.6102486 -0.36236674 0.34763432
0.6561502 6.648694 1.3536918
-1.8867462 5.014719 0.28995645
-1.5896006 7.851904 -2.5223393
0.8237176 2.546372 0.346762
-1.3130636 4.372678 1.0694423
-0.287247 5.0421457 -0.2873999
-0.66513157 12.044712 0.03327421
1.5536478 3.2870693 0.36710912
-1.2818346 7.471402 -0.1980252
-0.81274366 1.2365706 0.47133023
-1.1240728 5.3794394 0.39377952
-0.98295176 6.86998 0.8265257
2.501008 7.7107763 0.11795483
-0.30788225 5.369937 -0.5548111
0.13045377 9.402618 0.55382407
-1.3600421 7.0902224 -2.191175
-0.38203353 12.760395 -0.6262219
-1.452465 1.5309889 0.1357184
-1.122652 2.620934 0.12511006
-0.5874543 5.683588 -0.49741793
-2.7247033 7.2458534 -2.7957535
2.2965407 -2.776195 1.1109045
-1.6250501 4.525921 1.2368157
-2.0369482 1.8356133 0.09810871
-0.58727777 12.418512 -0.565922
-0.631897 5.7783413 1.817239
-0.8098862 9.604795 0.26485527
-0.56954455 5.7498884 0.7823515
-0.06547035 6.761739 0.2585389
-1.1036379 9.470686 1.0222137
-1.6408563 2.4896631 -0.281856
1.8985982 -2.38309 0.88368154
2.02661 -2.4687004 1.263582
-2.1671782 7.5771236 -2.518392
0.7194977 3.9540787 -0.18010789
-0.96821153 6.191949 0.42668217
0.67776775 7.144083 -0.29730898
-0.6991898 9.836483 -0.012700696
-0.47775918 9.857824 1.5015309
0.4258899 3.9856272 0.13360646
-0.89153385 6.168436 -0.23299539
0.9523064 5.3004694 1.0360355
0.83486146 10.229101 0.62962615
0.9108393 6.951439 0.19861925
0.799458 0.054393016 0.39119148
-0.631387 8.167694 -3.5622315
0.99066067 3.6081347 -0.18011707
-0.9278244 8.098932 -0.18875328
0.46770507 2.3467126 -0.18373781
-0.6014148 11.193462 0.31129897
-1.5445292 5.40775 1.1711228
-0.5561452 8.356588 -0.2222431
0.3966534 9.644367 -0.056952477
-2.318726 -0.3425023 0.26059288
-0.15037775 4.3572817 0.045945354
-1.1537986 8.55245 -2.840818
1.4326746 -0.091275364 0.954834
1.8246315 0.32570744 0.19297674
-0.09022236 3.804062 1.1915743
2.0968986 0.95650005 0.90349793
2.116345 1.1227694 0.5435455
1.470052 10.1077385 0.31336147
-0.32459915 5.697644 0.4542259
-0.48011553 8.752073 -0.23516053
-0.6997229 3.8001394 0.72024345
-0.5513203 3.12298 -0.39353722
-1.3701386 6.4702415 1.3372257
2.2301464 7.665411 -0.17570445
-0.7546041 12.445265 0.7573266
-0.6209141 13.428633 0.84282243
-0.25902027 4.139673 -0.5688578
0.41216552 2.7259297 -0.32803637
1.0572064 2.5080934 0.9821787
1.2491698 5.079893 -0.20625985
3.098055 -4.5701017 -0.17285529
-0.6140331 3.6493144 1.4528558
-1.2393627 3.593801 1.161665
1.1835494 4.1746674 1.377152
-0.62950873 9.748808 0.57886386
0.31244975 6.967205 0.31359595
0.57142925 8.627029 0.5829499
-1.3724616 3.7516694 1.4687293
-0.8179841 2.0822673 1.1311169
0.41172886 7.2528753 1.0319169
1.0605662 9.430908 1.1695452
0.6426916 5.6017666 0.9429896
-0.9267663 2.2728148 -0.22474384
-0.6433575 9.4818325 1.6206939
1.5099573 4.8078346 1.0522158
0.1719797 6.5407515 -0.4953506
1.5779362 9.246729 1.2685664
0.99170744 3.5960093 1.3956721
-1.7160308 7.2240314 -2.2209802
-2.2291632 -0.68538046 0.16857168
-2.2230616 -1.45326 1.3522551
-0.3116514 6.4964027 1.7657459
0.8368364 6.7854066 -0.25411788
1.8174758 3.0688176 0.06612551
-1.914254 3.8371305 0.8104069
0.99759245 8.28471 1.2998044
-1.360004 10.435211 1.3078129
-2.0431752 -3.1585908 1.267905
2.2865324 -1.8676319 1.0450058
-2.9726992 -4.5847178 -0.36397588
0.77444184 4.2343054 1.606983
-1.9790497 2.751358 0.8271477
1.9897923 2.2108426 0.7066021
0.029612456 9.680807 0.89096475
0.46036917 6.402793 1.1496227
0.85804594 8.500019 1.6392024
-1.9553244 4.2545624 0.26824307
-1.0218229 8.759735 1.2051327
0.5151353 3.9537935 -0.5642407
1.4948788 4.3343806 -0.10996166
-0.8917867 6.004981 0.8058324
0.65737975 9.034296 -0.12500271
-0.50902784 3.1588736 0.2552911
1.7578542 0.4939201 0.7728164
1.3016315 1.8557913 0.4541033
-0.9257785 8.191423 -3.8287835
-0.59868 4.517967 0.65126157
0.38571894 10.058348 0.43882233
1.6691115 4.151083 0.16081393
1.1370764 7.5480347 -0.022075891
1.1793821 1.3438148 -0.26371992
0.28017473 11.729237 0.25401086
-1.4475858 8.471275 -2.6294785
-1.6905143 10.295296 0.7677617
0.5654805 10.027775 0.10349882
2.2579412 9.315092 0.96241796
2.069879 -0.08416577 1.1478822
1.4221892 1.2877905 0.1105746
2.509523 8.605959 0.49324042
-1.7667744 8.190401 0.8043034
-0.1337868 11.219666 0.35787058
-0.043259323 9.854675 1.4974725
-1.2107062 8.069664 1.5125148
-0.17485482 5.938837 1.4330299
-2.3133879 9.624329 0.2366254
1.0626402 2.8943286 0.5214166
1.2977669 4.1086884 0.23709548
1.174252 1.2255571 1.1206188
-0.6907091 7.833103 -2.9370518
0.19112104 4.8548517 1.1217852
-0.26672626 3.1294622 -0.14731264
-0.64825535 8.355911 -3.2389793
-0.22161034 3.4195132 0.24111629
-0.13914332 13.396984 0.281726
-1.2081637 4.519264 -0.4402458
2.0824928 -1.2104769 1.3752728
-0.7478405 9.959805 1.1799707
-1.3030484 8.175388 -2.2785869
-1.9874785 -4.2058344 1.1064396
-0.68305945 6.497184 1.8255041
-1.9112017 -0.8397515 1.1755242
1.4651637 3.6010585 -0.30252403
-1.7287972 -1.5342343 0.9320915
2.0913653 -3.445455 0.78561604
-2.369701 9.207685 1.0817358
0.9768301 1.933919 0.12122047
0.06046293 7.0684204 1.0227022
1.6382198 5.0868206 0.7843604
-2.570569 9.317228 0.3147838
-0.5120883 4.154068 0.09258728
2.6798167 -4.177829 0.9272078
0.99829173 4.24605 0.49578953
0.015975319 7.512882 1.0550897
-1.7218261 3.0562196 1.0708034
1.9455218 2.6317868 0.5794741
1.4838386 4.0499725 1.1027503
0.82521546 4.256215 1.1709278
-0.03074772 4.5477543 1.0717461
-1.5758693 7.902135 -2.154861
0.64252067 7.7141447 -2.4270873
0.7614008 4.4754133 0.77486944
-2.3046603 -0.3368925 1.1411204
-2.245195 0.70681727 0.5449822
-0.08640818 5.372922 0.44337493
-0.5184268 6.837757 1.8405244
2.2178292 7.766198 0.35789537
2.5935054 -4.5899296 -0.6786766
-0.75071466 5.0747156 -0.18120053
-0.2691319 9.528069 0.6700059
-1.8258495 -0.7008171 0.23089397
-0.20718598 4.634694 1.8663518
-2.677023 8.523176 0.81942964
1.4053378 0.4598006 0.17586511
-2.6310716 -4.591176 0.10912819
-2.5215578 -4.208439 1.0714266
-0.80534875 7.318125 -3.422895
-1.6058805 3.546381 0.16620836
-0.8772676 7.7755423 1.5686262
-0.50670147 12.460239 1.0917828
-1.4634778 3.9104705 0.051461324
1.6754581 1.3003283 0.44067544
-0.7161497 7.309149 -2.2771583
-2.6138859 9.298981 0.71271193
-0.013062747 3.1727366 0.8601577
-2.9147482 7.35662 0.040432088
0.015712008 13.210581 0.6294644
-0.4847597 10.544441 0.19968772
1.8397503 1.8269229 0.031666867
1.0945494 5.9771795 -0.077382654
-1.3501041 4.7155695 0.050191805
-1.5080004 7.5291376 1.1312134
-1.6160557 9.365763 0.5033003
0.61124575 5.369893 0.2386612
-2.047748 8.128727 -3.4514132
0.6837195 8.626797 1.3001893
0.7838943 3.3115063 -0.5062411
-0.8829024 8.578386 0.50325835
0.30079728 13.051016 0.9870329
1.391614 7.445468 0.3672402
-0.26425874 5.3506756 1.1242628
0.287423 7.475705 1.3859394
-0.11674516 4.9535847 0.40783268
-1.4192336 5.1194067 1.3587775
-0.97132313 5.822254 1.1826406
0.8127873 0.78571665 0.7610643
2.0364761 8.3449135 0.8927258
0.21307513 4.546338 -0.21262407
0.9074328 3.2772822 1.2740669
1.6023533 2.0619597 0.22019023
-1.0696363 5.0787964 1.2246814
0.26860267 12.316593 -0.60619915
0.05722195 8.021767 0.5124092
1.8919184 3.0349073 0.4669634
-1.2191648 2.057458 0.9659945
0.4041227 3.1515627 -0.45844603
-0.013944544 5.5480776 1.3713481
-0.20572287 11.800983 0.018444538
2.1325378 7.2963104 -0.7838901
1.13993 5.880309 1.372153
0.27833784 2.8337955 1.3378649
-0.5505045 8.949888 0.5103971
-0.2662338 10.23843 1.4205372
-1.2300246 9.252596 0.6720754
-1.7288697 7.6287956 -3.5771031
-0.004153668 8.606941 1.287534
-1.2320032 10.777285 1.1577492
-1.1392441 5.1878643 0.71810377
1.0929117 9.042368 1.1050725
-0.674057 10.4669285 0.61687136
-0.5024797 4.8630304 0.42655718
1.2115533 2.652854 0.29602194
-1.6648197 4.1786127 0.92767537
-0.16241199 6.4862576 1.3907688
-2.0555592 8.198545 -3.0554638
-1.5480051 -0.69604313 0.5455837
1.5761781 5.619607 0.36988014
-0.9020232 8.058868 -2.2947044
1.4953592 0.1763536 1.3329754
1.1480145 2.6255407 1.2893436
0.19609141 8.570908 1.715452
2.2094293 8.079926 0.16497804
-1.747041 4.17188 -0.10988216
-1.3861866 4.773692 1.4631574
-1.6530459 5.729354 1.0090771
-0.4064958 8.003611 -3.2276673
1.8243425 3.6535754 0.70592594
0.79139674 2.7985096 0.74370694
-0.7433883 8.395014 0.12755921
-1.4662666 8.562256 -3.0833836
0.6581732 3.1636887 0.9536121
0.44933808 3.3850098 0.7332221
-2.0817075 2.6408048 0.23292011
-1.6953335 8.757771 0.33716238
-0.04808685 6.301214 0.7487401
1.501373 1.2151634 0.80689675
2.3084798 9.462511 0.6180028
-2.0731068 8.818735 0.34740442
2.1567936 -0.8169962 0.6906725
-0.46201688 12.907692 -0.03672138
0.40582448 12.652569 -0.3869834
-0.4793077 4.5322437 1.025423
1.197259 9.218428 1.4701111
-0.86114764 6.225525 1.2674623
0.23565927 7.1529474 -0.053475022
-3.0336404 7.205884 -2.0105963
-0.25951153 12.102394 0.96867967
-0.2618165 7.237899 1.7055681
1.273103 7.1330233 0.19946557
-0.34801495 7.27114 1.0724254
2.0951805 -2.0583034 1.2986581
-0.31290144 9.686075 1.154315
1.3941844 4.07619 0.6333462
-1.002728 4.0545816 0.88894475
1.1339743 9.175602 0.38137734
-0.071123675 12.02462 -0.732098
1.7540455 3.901021 0.41660696
-2.3356156 8.462799 0.26785445
-0.70809484 4.5548744 1.4018979
-0.27422315 2.743434 0.04230672
-1.8328071 5.3828936 0.4512357
0.48166925 4.70761 0.52237475
0.090081275 9.04553 0.17030704
0.4629923 12.510338 -0.003264084
-0.5918251 6.12914 -0.48047608
-0.89881456 6.402937 0.7937393
1.4578288 10.593777 1.0295777
0.28059602 7.995281 0.0719142
-0.09612712 5.3828335 1.7708046
0.34037393 8.270634 0.696293
0.4956388 3.8909106 1.6305737
-0.8985332 10.47109 0.25773752
-2.9694505 7.450639 -0.75756013
-1.3126936 6.676564 -3.587257
2.1556096 -4.291259 1.4389181
-1.7014308 5.7738705 0.15973869
0.03915871 12.821041 1.2188566
-1.5702822 1.8920538 0.06307186
1.2252169 4.8614283 0.1971207
-2.9512897 7.511138 0.42349303
2.4209752 9.027493 0.6004961
-1.1828573 3.3253489 -0.39960444
0.06370135 6.8854733 0.6663461
-1.4292946 0.6208614 1.3976841
1.0734036 0.6422663 0.5016247
-0.10969621 11.116049 -0.058318757
-0.6630374 3.1437235 0.6554214
0.85403097 6.543441 0.10300611
0.081808165 5.966197 0.98908246
0.57682 1.3465087 1.0622392
-0.73896885 7.139928 0.8185544
0.38719922 10.558264 1.3699954
1.4323418 5.9949884 0.2089794
-1.546454 8.181253 0.23898906
-0.59093606 9.314419 0.5878854
-2.1283827 -0.23495373 1.4475281
2.5203323 7.466007 -0.23072898
0.42753023 4.219528 -0.18687889
1.5387635 1.6641713 0.7813907
1.8411379 -1.1393139 1.0652597
-1.761342 8.434362 -2.8725777
2.1906304 -2.6152287 0.7931092
0.24476382 13.575174 0.511271
1.8070409 9.937773 0.70030093
-0.95249796 6.725456 -2.5929399
-0.07491714 5.1780567 0.06825563
-1.9463699 -0.36833668 0.0583826
-0.19177246 4.6217356 -0.2906463
1.1979866 10.423086 0.4474911
-0.7148646 7.72666 -3.400023
-1.3380265 7.522313 0.77123845
-0.57417727 10.206648 0.06486775
-0.23037624 9.237978 0.32893133
-0.39513588 8.178705 0.44196594
-0.9160192 6.6183243 -3.0173736
2.367311 -3.4025059 0.94809926
-0.9226177 6.641588 0.44526052
-0.97212386 3.7408085 -0.48851645
1.2815368 10.178869 1.0479565
1.4193671 8.87505 1.3243635
0.1843167 13.425037 0.9066031
-2.0868716 7.542918 -2.913915
0.5342556 8.52635 0.08377881
1.1630878 8.783638 0.38752306
0.9113698 5.6263084 0.31230247
0.92900133 6.799762 0.58756757
1.1618128 0.2826066 0.48427916
-0.2122902 9.32654 1.0277164
-1.8679852 2.1189742 -0.13015875
-2.137601 9.750816 0.6718551
-2.0949373 -1.66114 0.7912842
2.0518827 9.091482 0.6266613
-0.21435666 6.211255 1.118973
-0.67590404 6.143383 0.12853958
1.7511587 0.12164076 0.9723885
-0.67389727 1.52472 0.6879904
0.12467219 7.7127934 -0.31892818
-2.5351858 6.872671 -2.872428
0.112881064 4.9461174 -0.28152138
-2.088498 3.4187665 0.5195179
1.4573443 -0.26242036 1.3526101
0.7256751 8.399731 0.9407197
-1.723429 5.3740873 0.04499603
-1.4340937 8.105352 -2.75459
-0.58285964 6.6490297 1.4402246
1.5384791 1.8779662 1.0983355
-2.1176267 2.4051547 0.8754724
-2.1491227 1.0123737 1.2009816
-2.1078153 2.0462399 0.98079383
-1.2245588 7.6257896 1.4942641
1.1327219 1.8340685 0.9054427
-1.6375618 -1.0534313 1.4960663
1.0867414 9.840675 1.1540289
-1.070852 1.5857084 0.35077745
-2.5971417 -4.593025 0.8714956
-0.57605755 6.0201464 1.0815468
-0.2860244 2.5226808 0.62040913
-0.307988 4.5190287 1.3661752
-0.7326585 8.8257885 0.1536232
2.0430408 -4.608515 1.1898832
-1.4408906 1.1852434 0.89009297
1.1253581 -0.17601177 0.21688652
-1.5097897 7.752494 -3.2111697
1.7303843 -1.3847091 1.4204664
2.2951398 -2.3323956 1.0609605
-1.7286804 3.5835114 0.5687784
1.5063221 10.632353 0.6592865
-1.9313972 7.7872877 -3.2240663
-0.5225557 9.288507 1.2580111
-2.9352412 6.996443 -1.7903194
0.1061251 5.2212315 1.0559809
-0.5615537 4.924349 0.80327165
1.12443 8.008539 0.5730802
-2.0074892 9.868528 0.22472796
-2.6385598 -4.3333635 -0.16198167
-1.6618111 6.651984 -2.7475433
2.1013331 -4.2561274 0.6272502
-0.92183673 3.0654292 -0.32717705
-1.6572618 1.5458518 1.1400883
-0.14018144 13.01564 0.21131447
-1.6556897 -1.0729797 0.91658735
-0.07326111 6.160756 1.6985531
-2.1376534 8.8482 0.99719274
1.5472672 8.935617 0.9920573
1.2500143 9.63416 0.8697037
-1.9289694 1.0169947 -0.045421317
0.19344491 5.2983885 0.67851746
-0.41444784 5.217268 1.5290265
-0.99540806 10.089264 0.102468625
1.7421963 3.4042268 -0.058275744
0.85376143 4.9007244 1.5983338
-1.5514314 7.1770554 1.0860152
-2.9481153 7.4985523 -0.30528647
1.946145 -1.546237 1.0288868
-0.28135616 10.650698 0.5064324
-0.7401463 3.4389467 -0.48828948
-0.04780191 11.085163 0.93391573
0.22744375 5.609231 0.95968735
0.6025704 10.198647 1.5363445
0.82663476 8.01189 0.9585397
-0.12738791 12.918449 -0.25930142
-0.13721228 4.1534185 0.4079643
1.158391 0.78077936 0.17479804
-0.45938432 4.297449 1.6415622
1.6138425 5.2252684 0.4317488
0.78680444 4.4419575 -0.21834368
-0.25746566 12.2204895 0.18458217
-0.5419326 8.36788 0.7608732
-2.163168 8.456181 0.81574976
0.2530576 10.353754 0.18398726
-0.7817607 12.299351 0.32262635
0.19420445 11.023029 0.2111229
1.7472985 -1.7903872 1.3075488
-1.0975974 8.818708 0.16315353
-1.1598916 7.200886 0.16392815
-1.1479743 7.885144 0.8861848
-0.21950048 13.435583 0.9567299
-0.62503886 7.989951 1.800488
-0.39555162 11.359486 0.035475634
0.042456172 6.3736954 0.18313241
-0.5033616 5.3634205 0.72957766
0.17500985 10.225281 1.4363983
0.36862624 10.6883545 0.8610754
0.96173465 3.8497891 0.2192938
0.15737548 6.4950705 1.7518439
-0.15849736 10.331198 0.097980425
-0.71127486 8.243311 -2.5799108
-0.23020485 6.582673 0.5636381
1.403063 3.1783023 0.69842005
-0.4974352 8.578117 0.43728107
-1.6717329 6.829155 0.8909719
-1.0823739 1.8422554 1.2796903
-0.015578201 2.8441339 0.60699296
-0.021090787 10.708792 0.17419147
-1.9415956 -1.2830598 1.1436007
-0.8353462 7.1917696 -3.9031115
-0.25997525 5.784856 1.8121793
-0.6226485 4.1733236 0.8792244
0.60445213 3.6023602 -0.2710774
0.16631651 7.5689697 -2.9969687
-1.8844631 10.642051 0.7502506
0.24465829 4.7849274 0.11745858
-1.8378944 -0.40537757 1.2037549
1.6845026 10.275893 1.149996
-0.16357055 7.698061 -3.2530584
0.8999343 10.187315 1.0729301
-0.30941743 10.884184 1.1838481
1.9843888 8.484001 0.21683797
0.6129888 4.95543 0.18121767
1.3419361 4.481223 0.431817
0.7768432 4.2227364 0.14777932
0.2432133 7.6324053 0.6806232
-1.7869582 9.118698 0.22851846
1.9466472 9.472458 1.2006373
0.92784655 7.4411497 0.28049982
0.95169914 7.91302 -0.16966411
0.15625417 11.262838 0.68287385
-1.8472772 3.4605017 0.9435613
-2.8624697 -4.5742025 0.46570957
0.75334406 3.597939 0.52419496
0.22570282 2.9022713 0.27189434
-0.8627219 7.5473657 0.8251536
0.4509768 12.502682 0.7139963
0.9159223 0.063520834 0.7742716
1.5382516 2.8499799 0.45583987
0.11655329 6.098936 -0.5498408
-0.52819014 7.217105 -3.6804633
-1.159827 8.238365 0.53468156
-2.171814 -3.6046143 0.79400957
-1.4211903 9.35886 0.009959361
0.47996545 3.7888918 0.81689596
-1.7668769 7.033538 -3.2115102
-1.4189534 2.9761086 1.2669041
0.84273314 3.5535579 0.9197053
-1.4420161 -0.8676214 1.2021902
-0.3925264 9.935177 0.33294564
0.27875447 3.2394419 1.4733639
-0.7433796 7.3312864 1.169749
-1.2900043 6.570072 -2.8309727
1.5663686 -0.33374095 0.3723129
1.3701253 -0.49932098 0.0826188
0.79911363 8.885864 0.23230678
-1.5500095 4.337965 0.18315351
1.1408067 3.4363194 0.5366025
1.4765882 7.3199387 -1.2699072
-1.7826289 1.7181981 -0.20897973
-1.5408573 3.0953484 0.052675694
0.2610854 5.839715 1.3597994
-2.0310583 -2.856257 0.9206648
1.1735337 2.190256 -0.368622
-2.39567 8.441177 1.0731859
1.0738243 1.170856 0.1407169
-0.14470196 6.1263494 -0.18723452
2.206266 7.3755093 0.1789943
-0.22702399 6.3431797 -0.53287196
0.22633263 4.3348236 0.16013348
1.7840383 9.283428 0.3264627
-1.647768 6.448971 0.65587735
-0.112779796 5.609646 0.10425712
-1.8923924 3.8874545 0.1113865
-0.895733 13.03595 0.55966556
-0.69401765 4.151679 -0.55273485
0.53203154 6.208066 -0.4638903
-3.006918 -4.5582294 0.058552966
0.68180966 9.909561 1.2445774
1.0201468 3.1599064 0.8525505
-1.8640947 -2.1956806 1.3259039
-1.2511095 3.9742112 1.1372972
1.792819 9.22851 0.85371983
-2.2596288 10.415995 0.6188971
-0.87722677 9.83625 1.5918584
-0.33705127 6.4213715 0.16274634
-1.9169941 8.385519 0.44523573
-0.8831835 8.649687 1.5782046
1.140584 8.6337185 1.0541742
-0.84776855 7.719964 -2.5963974
0.42004633 7.884988 0.39612222
0.23918515 2.209992 0.46436685
-1.5298038 -1.3165028 1.2316313
-1.0259626 10.265306 0.6685759
0.7001362 9.2570095 0.97969735
1.4891002 9.6059 1.3178375
-2.1980462 -0.6496227 1.404782
2.3499045 -4.604026 0.041263208
-0.82081854 12.710629 0.033947617
-1.4573088 7.584034 -2.8264165
1.7880863 0.95761055 0.53880966
0.12947029 10.085442 0.7662331
1.1196401 3.0029974 -0.4738993
2.495998 7.119361 0.379646
-0.32605028 3.9529347 1.4731283
0.05583124 3.9803438 0.8302038
-0.022289976 10.109362 0.38886964
1.1720252 3.8877845 -0.46695912
0.40432888 5.913376 0.68730414
1.7630496 8.466417 0.5999373
1.4340258 9.40555 0.17148438
0.06595163 4.977908 1.7982221
-0.52176535 11.981176 0.36626726
0.37756455 7.3910933 -2.5982351
-0.8292465 1.9204721 -0.046204433
1.4571195 3.663097 0.7077414
-1.71173 5.766715 0.58837235
1.7870748 3.3058715 0.7517514
0.34515244 8.849272 -0.16560891
2.3190136 8.4720955 0.22368917
-0.056126803 8.858082 -0.17709306
-1.6943729 10.175831 0.29360348
1.6127071 2.4354854 0.3988117
-1.475215 8.252859 1.2260801
-2.7700167 6.9118776 -2.6197357
-1.5747159 4.7628756 0.37432647
-0.58373404 12.143036 0.7461461
-2.0989861 10.357008 0.9674183
0.9749795 6.424371 0.45077205
2.120308 -4.671525 1.5715289
-1.190628 8.624184 0.8425138
0.9707655 7.9629354 0.23472285
0.46423823 4.1571207 0.88338435
1.7247243 2.7212925 -0.16147563
0.99811983 2.4504957 0.64147186
-0.41962093 5.571621 1.4857793
-0.03654834 4.3297453 1.5630221
-1.1735113 8.955341 1.5517077
2.2466278 -0.8939816 1.1383371
1.7674546 -0.43883586 0.06918579
0.74345696 9.069075 1.3193519
-2.2671351 -3.9021869 0.44475472
-0.3574264 3.4818287 -0.39150995
-0.56714135 7.4114103 -0.30317795
-2.0156817 7.465804 -3.832419
-2.3761725 -4.221427 1.4688663
-0.35961294 3.8084579 0.22975177
2.1267672 -3.5949092 1.1408024
-2.237393 -2.1088648 1.219667
0.044190995 6.9528036 -0.40558589
-0.48604298 6.2415066 1.4709306
0.27827227 13.022579 -0.44495344
1.1212301 7.6160126 0.5801492
1.7464561 -0.33336794 1.053247
0.7146448 9.539753 1.3059599
0.5635468 12.877506 0.75420165
-1.3466649 7.6020794 -4.0971518
-1.5350981 -0.6084361 1.4577665
0.35391462 9.857378 1.5612919
1.8509443 2.6720963 0.1861887
0.99453866 9.32136 0.736089
-1.3034291 8.266104 -3.7940269
-0.97372377 4.255083 1.2712321
-0.54083216 3.477912 -0.036398806
1.6747501 4.6817317 0.74299026
0.3770942 8.372061 -2.3010101
-0.88393867 4.3300934 1.6798966
-1.0274243 1.5800853 -0.0966153
0.5034056 5.098818 -0.5223936
-1.3568895 2.8823185 0.38905656
-0.2479779 9.502539 1.5055199
1.0682781 4.0947046 -0.11044976
-0.4913088 6.2571526 0.7682365
-2.1771994 1.0617797 0.74100363
-3.0557842 7.386381 -1.2053826
-1.5144432 1.4046531 0.5747727
-0.0982116 13.004026 -0.64265776
-1.588273 6.821788 0.49969006
-1.0786219 8.365438 -2.516374
-0.7185056 3.8665419 -0.17172468
-0.9041337 2.9186063 0.35195667
-1.3552446 5.917182 0.24956304
-1.230693 3.205236 1.0261078
-1.7757964 5.3526506 0.8397602
1.4005983 2.5276852 0.69063807
-0.57057273 7.785391 0.53466856
1.4712098 8.180805 0.73836863
2.5858617 7.803005 0.57106936
-1.9356563 0.056384053 0.36424974
0.77102375 8.665596 -0.1739629
2.4227414 -3.8485227 1.0005264
-2.0303664 1.6729219 1.1132553
1.125304 0.53101873 -0.11793612
0.11863454 11.653688 0.59478474
0.81990516 4.9715548 1.2080183
0.21462199 6.2817774 -0.19434497
-1.484643 6.590887 -0.0877924
-1.514529 4.1173763 1.3274219
0.77015257 7.7738247 0.5402342
0.7965783 5.847185 0.61595786
-1.186755 7.8286343 -3.0020661
-2.350492 -0.35421836 0.7127814
0.36502147 4.2495613 1.7276785
-1.1178963 3.8858714 -0.13580894
-0.30438608 7.732313 -2.8380027
0.23410393 12.73457 0.2589928
0.28142262 11.361717 0.34840795
1.4295449 6.7124376 1.0025129
2.0724216 8.198885 0.51458204
-1.6439123 6.0880384 0.7912619
2.0165014 -0.80161715 1.4175875
-2.0001106 6.9021587 -2.74996
-1.6606591 6.139202 0.3821891
-0.791944 5.1360817 0.53510296
-0.5137124 7.4908686 -3.1141317
1.1803687 4.5989294 0.76055205
-0.07377905 12.449508 1.1548452
1.5543821 1.0892868 -0.2069057
-1.9447362 8.201819 -2.6653323
0.45067012 2.990456 -0.036559224
-0.8251668 5.2357635 0.94663846
0.5415133 1.7476418 1.1090331
2.2985191 7.600442 -0.5624877
2.0304928 10.134754 0.9539577
-1.9108939 2.8537955 -0.048226945
1.2478259 6.3552485 0.06031397
-1.5199742 7.22139 0.4162342
-3.2066288 7.2572355 0.2355102
-1.4235678 8.688484 1.2300534
1.3762615 -0.7041738 1.3330247
-0.65869653 10.385517 1.0656753
0.8035306 5.899827 -0.35621816
1.8387249 3.4929376 0.33264947
-1.9642873 4.2297487 0.63788867
1.7127647 3.7729907 0.029819343
-1.8106732 1.6551373 0.76001847
0.65110564 2.4507713 0.93354774
1.6756072 1.6705434 0.43003064
0.46055108 4.910365 1.7437167
-0.08768129 7.821109 0.0037934594
-0.93110335 1.2287791 0.07026464
0.39207458 3.5748868 -0.5621228
0.2893234 11.823782 -0.12907991
1.5143132 7.814061 0.5770918
-0.47963887 13.172983 1.1422911
-1.926187 0.0067330496 0.78359854
0.39490998 2.104858 0.9259943
0.59723604 6.242633 0.44338083
-0.408382 11.730606 -0.5866827
-0.4534707 4.3020077 -0.27338302
-1.5316138 2.0917683 0.72172856
0.029833738 4.4969854 -0.60218525
-1.6389725 2.6740532 1.1419768
0.511413 5.845685 0.27423948
1.3095093 7.82222 0.18859527
0.8030504 7.147973 0.9225111
-0.17474842 8.775436 1.6049826
0.7817527 7.524394 -0.23504463
-0.12884206 12.387995 -0.82083124
-2.3259401 -0.681834 0.54882944
-0.5533662 5.1607885 1.1744596
-0.62864244 6.811021 -3.2257657
-1.4633048 6.950467 -3.8650208
0.791124 1.4069154 0.37026048
0.2124052 6.660227 1.3890083
-3.1362886 7.079365 -0.72762334
-2.1399903 0.0012488007 1.1962001
0.0836869 2.9668875 -0.23187187
-0.6131767 4.182106 1.272243
0.78212345 1.0551968 1.0935977
2.42166 -4.2566185 0.72275627
1.9763196 -2.7912617 1.0810316
0.24492338 3.135491 1.0958002
1.1838722 3.40773 -0.47304547
-0.1356642 8.464048 -0.21693
-0.9245486 2.31564 0.82111526
-2.2037673 1.444958 0.6600845
0.35098404 3.40137 -0.119790226
-0.4758485 11.119949 0.91908145
-2.1546464 -2.0680847 0.8447995
0.86753374 0.43500575 0.19012126
-0.8002088 8.421713 -2.9021559
-0.67763317 6.9845705 -0.27575284
-1.316844 7.0379705 -0.16755348
