-0.15896967 10.675356 0.9307703
-0.41053945 12.600317 -0.19662634
-1.2863657 3.203331 -0.3403396
-0.029221155 7.2687836 -2.308085
-1.8141775 9.472685 0.8917178
0.6772133 8.826427 0.9444734
2.3803773 -4.610712 -0.2262539
-0.6822386 13.485063 -0.12360847
-1.363182 2.5771403 -0.33456397
-1.4489341 7.9172926 0.5524355
-0.2860881 9.899893 0.0019536857
1.0428938 6.0200033 0.35462606
1.125154 4.7202263 -0.42461443
-1.0766027 7.2486563 -0.2801325
0.27518135 4.5114784 1.3870294
-0.53385055 13.628735 0.47821414
-2.6045432 8.907038 1.1251307
-0.19877493 7.7047215 0.66267025
-1.1715441 0.22391742 0.79828966
0.09436448 9.373592 0.23450452
-1.9794044 -0.22204894 0.89589655
-1.4961696 4.2086496 -0.36625665
3.0672812 -4.587347 -0.58820105
-1.4162939 4.99135 0.90708935
2.4916205 -4.6035795 1.2011256
-2.190928 -2.3790827 0.90767074
-0.55125356 12.842972 1.2421396
2.7693796 -4.6438837 0.7942252
-0.75314486 5.0767174 1.7534299
-0.48782167 12.124002 -0.60004103
0.47593778 2.2298994 1.2126579
-0.73571527 7.925577 0.80163527
-1.4632168 7.5879335 -3.2799153
0.81576395 8.930632 1.6467865
-0.6703156 5.977693 0.43981987
-0.85006785 5.4804125 1.68777
1.5466285 8.257749 1.0723233
-1.4630659 5.2224092 0.16771892
1.0473483 7.4421663 1.2880487
1.6955321 -0.8861569 0.6599152
-0.0005517723 6.9110045 -2.4916806
-1.1722026 6.9487104 -3.0719566
-2.0736828 9.540138 1.2045922
0.027602103 2.5581555 0.24599645
0.5068351 5.1799183 0.9322381
1.3486359 3.363934 -0.013593616
1.6847253 4.3218155 0.50456536
-1.0844347 4.794918 1.6247938
-0.05006819 5.148875 1.3742001
-1.7459888 9.396942 0.18068591
-1.3390014 9.146369 0.29753986
-0.30303174 7.6933527 -0.39759833
0.43008107 4.455139 1.0051302
2.2521944 -4.633089 0.7686461
-0.32413915 7.878849 -4.1814327
-0.02476849 8.780113 0.95661354
-0.50238407 7.2027874 -0.014891278
0.47877365 6.708811 1.6347466
1.0366306 9.986187 0.7044283
-0.6244309 2.8628955 1.1039307
-2.1471524 -4.269849 0.6494887
-1.1723073 7.619484 0.15491194
2.4924479 -4.1961765 1.2597301
0.10162004 5.8267136 -0.28105888
-1.558778 -0.07177316 0.21032089
-1.2825856 7.4878054 -2.6882372
-2.303318 -4.2369194 0.2015439
0.36536556 12.230412 -0.18310964
1.1162255 6.9237385 0.8863181
-0.2327773 4.1801224 1.1164582
1.4592478 1.6588581 0.092972666
0.21715176 5.049574 0.2989776
-0.2897321 3.5506253 1.2567589
-1.4495096 0.6306896 0.57630205
2.0605683 1.5312731 0.56160927
1.982688 9.081696 1.114939
-1.6058232 7.7760897 0.93725824
-0.77877355 10.216961 1.537
2.8335748 -4.2619905 0.09207301
0.13766065 9.961931 0.039348915
-1.5951202 1.0609965 -0.21362385
-0.1663093 5.1128674 0.74280274
2.8305697 -4.566308 -0.87832904
-0.92202604 6.7471104 -3.3129005
-0.4005884 10.222801 0.5530734
-0.6942959 7.6429567 1.7325206
-0.06244614 7.87047 -3.7656684
1.8761876 1.8014252 0.8126657
-1.136599 8.99341 0.9709302
-0.66805696 7.752123 -2.7460833
-0.8439671 8.184488 -2.748211
0.6024585 2.5873508 1.3077128
-1.2225635 8.425467 0.23949486
0.4649502 4.1398525 1.2984059
-0.574311 11.758455 -0.0815234
0.8719902 1.0609827 0.44797882
1.3428156 -0.894379 1.2415662
0.06272258 12.731125 -0.5602133
-0.30937737 8.11582 -3.5761852
-0.5850545 10.700705 0.9250088
-0.21645871 12.816029 0.5467235
-1.1412799 8.171661 -2.9886243
0.45958507 7.8703747 -0.26153845
0.9061655 4.634014 0.36463654
0.7169657 1.9701788 1.2634597
-1.0087748 0.9255434 0.31455964
2.138689 0.7057533 0.7115965
2.4183269 7.3685627 0.5893629
-2.0395775 3.1939545 0.17464197
1.0089781 2.739935 -0.18395051
-1.4458992 10.049942 0.6773142
1.6406432 -1.7162888 0.8983016
0.42191386 7.67663 1.0045485
-0.8684255 10.898977 1.1895776
-0.32979476 3.1874008 1.0207493
-1.3295794 -0.46017295 0.64604473
1.3388859 6.6513186 0.6221392
0.4958316 7.26556 -3.8458538
1.6598219 9.638014 0.8725971
0.23181969 13.451757 -0.26217198
1.3360317 5.210347 1.1302469
-1.355727 10.451855 0.89448714
-2.5277882 8.041942 0.7125636
-1.8227613 4.904194 0.6935899
-0.9632454 6.933647 1.2726872
1.0284917 7.275015 -2.3681126
-0.14031753 2.9436903 0.12957466
-0.18045902 4.691828 0.7058704
1.0994759 8.407204 0.53378856
-0.19828922 7.0291033 -3.527605
-1.7710242 -1.8735967 1.0398476
-0.57186687 12.897053 0.286933
-1.1071074 1.470979 1.0881329
-0.5235292 7.0198116 -3.0009532
-0.84583294 5.0040894 1.3640647
1.1968403 0.402107 1.2536411
1.9078059 10.078867 0.31542742
2.6024632 -3.9946685 0.7988217
1.3598468 3.6549964 0.2588551
-0.9130336 5.87202 0.07477087
1.2338033 1.3988082 0.435264
1.2881515 -0.31654197 0.58189726
-0.32744062 5.7789965 1.0809135
1.4663248 5.9453287 0.65518534
1.8887026 8.900106 0.30065203
-1.5556846 -0.07559109 1.4403105
0.6234008 2.1409454 0.55376816
0.34235692 4.790251 -0.6749102
-0.62193143 6.703519 0.6423708
-1.8191354 0.56072164 1.4960699
1.6531001 -1.3164914 0.78035927
0.6846204 7.3470106 1.2442834
-0.83789754 7.8378687 0.12233813
2.9456606 -4.591114 0.30972487
-1.119815 9.859295 0.47791666
-1.6890464 2.2188644 0.30955237
-0.17573005 10.513529 1.351996
0.52974236 1.9452772 -0.17521295
-1.4106185 5.434949 0.7167984
-0.29150712 7.0621796 0.35914475
0.41134077 1.4519074 0.3923791
0.6558043 10.513676 0.9157815
-1.3809865 1.7294414 0.8962265
0.874882 2.0746012 -0.3723297
-0.8417829 6.5639763 0.0025598756
2.8016906 -4.4752903 -0.38225198
0.08732751 3.9441137 1.4403453
-0.33156997 6.948382 0.7488283
0.030861188 12.167204 -0.074718475
0.5362644 1.5435815 0.0051480597
-0.5016687 6.376251 -0.1940521
-1.6560831 1.3122008 0.17738768
0.58174646 12.921703 0.22978869
0.3809685 4.987849 1.3554282
1.1082735 0.9742023 -0.2704342
0.6701385 10.345259 0.2919231
-0.1955778 13.648338 0.7280791
-1.6601326 2.2981315 1.1075736
-1.4298747 1.8809211 0.5000111
0.7404305 9.370552 0.35941684
-1.2153218 6.243536 0.97208524
-0.1645022 7.2889004 -3.1329756
-2.4582257 7.2317505 -1.0341992
0.34120142 5.4298897 1.2786999
-1.2348039 0.624277 0.21974933
-0.5216305 7.2510185 -4.1664686
-0.4974352 6.785919 0.22009414
0.8704512 4.2104855 -0.5588831
-0.18778634 7.74638 1.1970155
1.1183734 8.661402 -0.004013205
0.82737887 6.2717094 -0.23408744
0.9826199 4.511094 1.4874313
-1.3314722 4.2268553 0.7227968
0.78355145 3.130598 0.46771836
0.05901365 5.7841616 0.49592048
0.023940839 4.223274 -0.3188486
0.29018235 6.2700977 0.826718
0.56251 3.0404472 1.3059433
-1.239064 3.3363476 1.4536691
-1.350641 3.571992 -0.06158445
1.1959116 7.8116894 0.9087014
-0.061487466 3.665657 0.43197906
-0.21193561 8.290016 -2.526724
0.22367024 7.6777124 1.7237866
0.35621506 5.55194 -0.13396779
0.632527 7.740116 1.2999537
0.24320206 13.572363 0.14792407
0.4860418 6.815318 -3.2581816
1.8185875 0.029810864 1.4202077
-0.5101937 6.156904 1.8282545
-1.243556 5.5234084 1.0360252
-1.7017648 1.4527197 -0.22118887
-1.1718409 9.497526 0.35459894
1.6779757 8.644506 1.0667248
-2.6264005 7.6927996 0.59286356
-0.85764354 11.033937 0.74834776
0.61969554 4.6104927 1.3136504
-2.1736846 0.77237296 0.9054127
-0.51076806 5.7022657 0.05192203
-1.3481236 5.853389 0.768646
2.2438345 -1.2181412 1.2009318
-0.6020993 2.122551 0.8151883
-0.22589874 6.8565693 1.1746652
-0.8015194 5.205761 0.16906494
0.0422628 8.159658 -3.4969997
-0.78272235 7.4333687 0.3173201
-1.2226824 2.6892428 1.3408048
-0.954594 7.4863443 -2.5020118
-0.7280917 9.576534 0.9733435
0.052703977 10.343834 1.0427592
-1.8316119 4.5747833 0.8699974
-0.42584547 7.0271883 -0.4670847
-0.009121679 10.42458 0.59249616
-0.24979427 6.868 -3.200562
-1.5480888 3.4658227 -0.3622591
-1.6644747 1.9269619 1.1298947
-2.3711267 -0.7049521 0.88026917
-1.0214643 1.0367208 1.1001072
0.13923934 9.337221 0.9246079
-0.41536713 10.914141 0.20669192
0.6416925 7.7021503 0.052028798
0.045631126 13.226088 -0.028733328
-2.1368136 3.0701103 0.535846
0.037512377 8.333635 -3.8346362
-1.5759306 7.69573 0.18963268
-1.3765538 4.9839687 -0.3460369
-0.36135823 12.384342 0.48061728
1.2767855 3.4159608 0.85450876
-2.0500388 2.4861155 -0.007013155
-0.9519632 4.052305 0.5048709
1.1938343 5.6790257 0.5114586
-1.0936 9.840435 0.8931811
-1.1516821 8.265787 1.2449303
0.049402647 3.42625 -0.41819495
-0.8657495 13.389229 0.59099114
-1.0232778 5.7992706 1.5729499
0.8165827 1.6328132 -0.26201248
-0.03323718 9.130428 1.2444367
-1.1298506 4.7368813 1.2049251
-1.7703693 7.5726967 0.64544535
1.1682732 8.255854 0.9394609
-1.2785131 6.040079 1.427978
-1.0331056 4.7465925 -0.20146391
0.64053696 8.1448345 1.3140385
0.20386505 13.182121 0.34469736
-0.43163574 5.015808 0.010813439
-1.1750441 9.78903 1.2563473
-1.3085725 6.5569715 0.39256865
0.8039105 9.730331 0.090605885
1.4896135 3.117105 -0.35681683
-1.3413618 8.292843 0.8870582
0.35693043 10.622593 0.45032793
0.544556 1.126056 0.22385302
-1.5608776 1.3131621 1.3755801
2.2923598 8.399349 1.0100576
-0.034767017 9.5775585 -0.068837196
1.0326641 7.1619196 0.54274106
-0.05442219 7.5241394 1.5359082
2.0165424 -0.39216262 0.4379487
2.2608871 -1.4383605 0.83014214
1.3972983 2.8956294 -0.025464002
-2.5618043 9.63688 0.73396295
-1.3943655 10.061596 0.27995956
-0.8980061 7.3408995 1.5496454
-0.8411298 3.8470035 1.1904008
-2.2407022 0.4166695 0.31810993
-0.009604432 12.44866 0.68559235
0.02249435 9.748918 0.35042
-1.4037068 7.8426867 -2.7892423
-1.5404403 0.4308827 0.9666132
-0.29658896 6.6619987 -0.55734104
-0.58546257 2.4100442 -0.09529382
-1.9621277 0.43772805 1.0874755
0.26692992 7.5164022 -0.040812567
-0.73747236 10.072453 0.85824347
-1.7405298 1.0488172 1.2288895
-2.5016232 7.53409 0.24189316
1.0112588 7.036766 1.2730958
-0.4458341 11.742939 0.68593204
0.65908 5.263809 1.6853542
-0.48503965 2.88102 0.4034106
0.7024274 7.04626 -3.0341678
-0.37132192 2.5378594 0.1762124
1.9603009 1.4402182 0.23944779
0.3300972 1.846091 0.20130715
2.3536081 9.048737 0.8806019
-0.14756835 4.893285 -0.684376
1.6858356 2.1072495 0.95941496
0.0018854856 7.344095 -2.713245
-2.629269 7.6622887 -0.33850813
-1.3646004 7.5064936 0.4690981
-0.7290184 12.050201 -0.3233295
-0.98371536 10.604347 0.9355641
-1.3753724 -0.3305418 1.236376
1.9575758 7.1577177 -0.5385946
1.5289915 0.6572583 1.1217065
-0.51275957 7.3717422 0.6306926
0.9258206 7.1434937 -0.16307652
0.2697935 5.294674 1.6462828
0.58857644 8.11957 0.09191163
-0.008340141 4.7460737 1.4187809
-2.1082792 0.774652 0.1343543
-1.0287211 2.295661 1.330936
-1.9965985 -0.6733626 0.93495023
-0.979262 3.5563793 0.89267814
-0.2625624 8.07781 0.8505131
-0.36533326 8.497885 1.1049991
-1.7185266 10.570446 1.1373291
0.12828422 7.4643335 -3.3392463
0.29316938 8.979225 0.91495466
2.1428359 -3.0665383 0.81404173
0.71259224 3.8117118 1.1242466
0.49694562 6.304327 0.04067179
-1.9911895 3.594048 0.1275944
-2.7548716 7.370232 -0.44114435
-1.885001 1.3701317 0.47345614
0.9412638 8.778385 0.6600442
0.90185386 5.5896196 1.5904298
1.099266 0.03470218 1.0737808
-1.1885784 3.1959262 0.05286114
-1.3888121 6.745876 1.13915
-1.9764836 10.424582 0.50670755
-1.4406836 7.256707 -3.2754269
0.030693978 9.560495 1.2740321
-0.69814956 12.822428 -0.39715433
-1.551595 0.93638885 0.21254241
-1.0253558 6.587205 1.1058705
0.1023633 5.675332 1.6574662
0.9067464 7.254156 1.6226916
2.098295 7.2007656 -0.1563957
1.270283 0.0763946 0.60851896
-0.17682394 11.657085 -0.65500784
-0.11161333 3.6373014 -0.12668213
-0.22515568 6.1453886 0.3795542
0.27327806 7.2374306 0.57411134
1.2089734 5.2765064 0.7100277
-2.0368257 8.566893 0.7478422
-0.48821378 13.16712 -0.420321
-1.4660311 5.5927153 0.35029393
0.80987 3.0062084 0.045549303
1.4164886 2.714251 1.1046088
-0.49134123 7.6339436 -0.009751469
0.46255118 13.226805 -0.038026296
-0.15607077 8.274199 1.6048057
-1.5690007 3.4193368 1.2156386
1.257534 9.759264 0.18191347
1.9055774 -0.7817602 0.34897745
-0.87285304 6.993123 0.06366633
-0.58233213 11.377047 0.6370131
-1.9652762 9.409142 0.5296993
-2.6041813 8.989119 0.7669828
0.23410684 7.2660866 -0.4089231
1.0226011 7.8340187 1.3083632
-0.3215997 7.438063 0.28648853
-0.63777184 4.7935715 1.0960716
0.9948195 5.2445784 0.03524799
-1.0983973 2.6713743 0.5630926
-0.93610096 12.736921 0.32812524
-1.1165738 4.2284765 -0.46262968
1.1640172 3.0818152 0.22455803
0.3438946 1.8155224 0.5949305
0.8367313 7.6175737 0.96186996
-2.1365473 7.1635056 -1.1564376
2.250321 -3.9456463 0.35727066
-1.7555571 7.2343683 0.8301904
2.7471395 7.397069 0.46682784
-0.81057274 1.3037925 0.8604727
-2.40069 -4.5823135 1.3412056
1.4476953 6.3181257 0.8306111
-1.6359136 -0.51135397 0.96322894
-0.5956212 12.681911 0.6059767
0.84965646 2.8414245 1.1158621
-2.6605859 7.1212196 -0.19595349
-1.4493532 8.78265 0.8858098
0.6930299 9.845242 0.48586982
-2.1893432 10.141945 0.39298758
0.08016418 9.383575 1.6135937
-0.7764529 8.388844 1.2099762
-2.5147228 -3.9003248 0.74755824
-1.5780156 6.4407945 0.99001443
1.4888144 5.512375 0.8501681
0.009383528 10.868834 0.6146108
-0.92835116 3.5497217 -0.09866151
0.5172861 2.5098176 0.5922426
-1.878133 -1.3341808 1.5434215
-0.37344778 13.58989 -0.318283
1.9967592 10.357815 0.56058145
-1.0994334 5.846281 0.4170419
1.0543017 0.7261828 1.1317759
0.181278 4.865777 0.6831256
-1.3918889 7.80849 1.2612298
-2.175336 7.180794 -0.7616735
1.3551829 0.87845063 0.071268275
-0.1387459 8.794542 0.49789762
0.2411681 2.4733102 1.0545537
-0.9819732 9.061329 1.3059013
0.034978688 4.0021725 0.03977789
-0.74249303 5.3745785 -0.5231472
-1.7726674 9.779949 1.3349288
-0.10768445 8.151064 1.2430141
-0.83141196 4.4015656 -0.17778444
0.20481691 12.808273 0.52012146
2.7055044 7.34822 0.060031325
-2.2177796 0.016015843 0.11491212
0.85338306 8.05806 1.6379201
0.69753337 2.7924714 0.32169127
0.4925303 5.516631 0.56189877
-0.58213973 3.227274 1.2928708
0.26487625 8.411541 -3.5097976
-0.66250455 5.8596497 1.3960061
0.6006994 6.516737 0.7323431
-0.25061586 7.8392267 0.26919562
-1.9860816 4.653371 0.45063877
2.229937 7.993491 0.77189314
1.8747776 8.838013 0.7750772
1.1946144 3.781958 1.2822543
-0.21119153 11.944525 -0.31072295
-1.8071613 9.889731 0.9712136
-0.14199015 5.5586357 0.8023858
1.0804563 1.6600792 0.07937926
-0.36197942 2.9066296 0.7824352
-1.1238306 0.5799854 0.9535321
1.4158235 7.0623817 0.6225811
-0.81281626 7.298603 -3.578899
-0.04087227 6.9828825 -2.8927388
0.81538594 7.8182926 -3.3052502
1.8318943 1.3963583 0.8238603
-0.50687206 3.5534 0.40260124
-0.6450988 9.127079 -0.16685212
0.55984056 7.077588 1.5961392
-0.2083971 12.074423 0.683329
0.10126892 12.469315 0.32356945
0.74209714 5.6697855 1.2711651
-2.1182852 -0.9946773 1.5245168
-0.37022427 6.56188 0.9392837
-0.120191574 8.198423 0.10462415
-0.696931 7.3467197 -2.8172314
-0.5812937 8.765144 1.7075405
0.19420478 5.932864 0.11487074
-0.7654814 9.14897 0.9702964
-1.1893895 8.019648 0.19503158
-1.6291964 0.7144507 1.230576
-1.8578868 4.6728277 0.06674071
0.21374863 8.657877 0.6177902
0.47762385 12.854389 -0.107876495
-0.97101927 6.935135 -3.6991215
-0.8000423 5.5052347 -0.10398257
-1.9471333 1.3629067 1.2799072
-1.7357931 2.9033427 0.41395897
-2.6894174 8.355484 0.6084578
1.1598108 4.855358 1.3447919
0.33688748 10.26729 0.7388441
1.7530608 10.495638 0.82492304
-2.8745012 7.5548363 0.35634774
-0.9626914 4.8509874 0.86634207
0.99532926 10.0672245 0.27007365
-1.9869885 -1.0287006 0.7512462
1.2361591 6.781595 0.31431872
1.0666553 10.79512 0.77726495
0.6947087 8.217623 0.47632778
1.2450042 3.417901 1.223973
1.5222149 3.1419425 1.0345181
0.03327986 8.359207 0.92487836
-0.20882618 7.5110674 -4.270876
-2.289937 1.9557462 0.50557566
-2.8054743 -4.54737 -0.7068863
-0.77453446 9.056559 1.6552737
-2.1865797 -2.3825812 1.3036859
0.95950973 10.0527725 1.4744179
-2.0906825 3.8995275 0.42311847
-0.2120241 13.014765 1.2652931
0.95346653 0.37490612 0.8822353
-1.9860244 -3.9512115 0.83596635
1.4102132 4.739746 -0.17919941
-2.595583 7.5005465 -0.76684964
-2.1673272 1.6473949 0.30631512
-1.5309052 3.1746335 0.7350278
0.57283545 4.536995 1.6976659
-0.8894322 3.4108007 1.347095
-2.2829237 0.035822228 0.9276546
-0.47821635 8.344795 1.4251671
2.1679177 8.680868 0.5937921
0.9318383 5.0794277 -0.42166555
-1.3079354 6.643668 0.76404476
-0.14325196 13.777546 0.33935165
1.1038187 4.2219725 0.91521
0.022701643 5.637248 -0.6537422
-1.527071 2.4952722 0.7870221
1.1147599 4.953722 0.9367312
1.4122701 10.2277775 0.7253982
-0.76537824 5.575555 0.35849267
1.0530204 8.758397 1.4057102
-1.5819576 8.599638 0.16042742
-0.94716346 8.278524 0.8852
-0.42152977 2.2480822 0.51148117
-1.1894803 5.5772657 0.032467656
0.38474262 2.9194164 0.54734623
-0.6011158 6.4189606 0.32468784
1.5721269 8.95989 0.5135186
0.18064496 3.5584006 1.4624618
0.59762335 9.961357 0.86656916
-0.10245076 7.314145 0.6456038
0.10265891 7.930272 0.9081123
-1.9806933 -0.6000304 1.6074615
-1.219667 0.2610396 0.40252125
0.06259321 11.449345 0.06682415
-1.002825 3.625801 0.55188286
1.2927887 7.3443394 -2.030957
-0.015901014 7.721987 -2.6220617
0.21688676 9.944981 1.0992553
-1.5017033 5.338257 -0.20304236
1.3920085 9.827305 0.56379366
0.4793746 5.9647875 1.0226183
0.6635493 5.2841873 1.320466
-1.0809324 10.229622 1.1246066
1.2391503 -0.84114933 0.26463735
-2.1315007 -4.5919895 0.94123256
-0.37392855 12.980181 0.9032111
-1.0978148 6.7922125 -0.26727223
0.08068584 5.186908 -0.674227
0.59799516 1.1151507 0.69963384
0.14427525 8.435171 -0.18151808
-1.5662591 2.2029958 -0.29034686
1.2845197 4.89717 0.55662954
0.20659745 6.5624485 0.54336464
0.15408212 9.086851 0.5373746
0.50154126 5.940592 -0.16256046
1.9636269 1.9075315 0.36520457
-1.4441175 7.1345243 -2.895895
1.7405457 1.0922546 1.1041625
1.1427557 7.619747 -2.198555
0.14263001 4.1907597 1.1058621
0.43351692 9.188534 0.20703778
0.8842081 -0.7498375 0.58013225
0.52088916 13.333668 0.32099372
2.0952215 -4.0138607 1.0807704
-0.6904556 2.448659 1.1349711
0.5123224 7.0231514 1.1955013
2.1518207 7.1970863 -0.91966915
-0.45643252 2.490747 0.86532956
-1.0545223 2.8577538 0.9819921
0.93584096 4.8288136 -0.08200131
-0.8531618 8.162413 1.5770733
1.0367385 9.616482 0.4480427
-0.14210218 7.893793 1.5961728
0.36856896 6.85248 -2.821548
0.4299411 12.721227 0.8784137
-0.024708927 8.594719 0.15602005
1.0518692 3.7714534 0.5271683
1.1685514 5.709571 0.0054535037
-1.8587146 0.5592176 0.6426419
-1.0467591 7.2886095 0.5814692
0.47438693 4.4133854 -0.54624856
-0.5172601 10.013359 1.1870524
-1.8369331 2.5028353 0.5376928
0.8836161 2.3034825 1.2889857
1.1290767 0.21229532 0.0063456763
2.0320134 7.5271883 -0.7798003
-2.2981157 0.052066483 0.5245869
-2.1866884 2.678775 0.6315906
1.1740992 1.4802837 0.8418398
-1.1466856 4.0736217 1.57195
0.62237406 3.5985818 0.08515689
-0.5135114 3.9020357 -0.5645426
-0.071979836 13.669626 -0.0758957
-0.83514166 3.1100898 -0.045111306
1.65024 -0.8381095 1.4559894
-2.8480372 7.4490385 -0.041084446
-2.0946884 -1.7162983 1.4144528
-1.6084859 6.1709013 -0.072999015
-0.07604572 3.8482194 -0.5141748
1.4387453 8.5413 0.26229423
-1.3026667 4.7200537 0.570088
2.012599 -1.162513 0.62746
1.0909588 6.644929 1.3188283
-1.6681135 4.061754 0.45727915
-1.5162127 8.937477 1.2813241
1.6719549 9.740284 0.27550632
-0.53343534 8.07538 1.1092656
0.35701746 9.23888 1.3016341
-0.6201172 8.379339 -3.7068996
0.5617671 3.4601989 1.4669743
-1.1489997 9.768511 0.07655971
2.2581613 -1.8849659 0.7851982
0.3948505 2.532176 0.23109424
-0.36893266 7.5193496 -2.5572124
-0.07378386 4.8048677 0.0075265616
-1.1362338 10.149975 1.5169663
0.05787286 7.609806 0.30248147
0.55148673 12.56698 0.4742691
0.55950224 7.216113 0.03912744
1.7049985 3.983337 0.7772019
-0.62924314 8.110205 -3.4080133
1.228831 2.2794805 0.2883011
-0.84442925 13.150644 0.9595151
-1.4439065 10.076315 1.0689988
-0.34359366 7.183588 -2.7152715
-1.4172506 2.392603 1.3375282
-1.0856569 3.1799312 0.6510123
-0.25681043 11.415436 0.81832886
1.2049087 6.2486506 1.1430095
-0.32096976 13.303904 -0.0639116
1.0593977 9.424715 0.044798024
0.86262214 1.6617129 1.1097696
0.92480063 5.0739365 0.38153803
-1.3698211 2.0191066 1.3599896
-0.6226716 3.5080724 1.0131104
0.9262636 4.5971937 1.0594704
0.7297175 1.7819893 0.7459974
-1.9002676 3.2471108 0.74737644
0.8368155 5.348573 0.6494726
0.9525357 10.697699 1.1667764
-2.2937527 7.1703672 -0.3494681
-2.2672787 2.2858 0.7356138
-0.88063896 4.4660892 0.99078155
-1.0315475 7.7487335 0.52130973
1.1010704 6.804595 -0.05704097
-1.5980198 4.6176453 -0.26107538
0.69010067 9.352957 -0.06390752
1.3900669 7.579647 1.1733315
1.5724845 0.7640331 0.3975277
-0.48555332 5.4273777 1.8287692
-1.959857 -0.51929796 0.5808513
0.06566431 4.603737 0.36171848
0.87519187 8.494169 0.23578574
0.34077093 8.796358 0.25413942
0.1666232 7.028814 1.3568435
-0.17979644 5.986103 0.047695078
-0.31517494 9.516822 0.23643726
1.5035703 7.457386 0.80123174
0.4756835 2.781941 0.9394059
0.30544323 5.154045 -0.09520559
-0.35861605 8.863312 0.12967533
-1.477886 2.839203 0.007655172
1.0482955 6.504348 0.886104
-1.0150046 5.6576395 0.71361196
-1.2399621 5.97911 -0.20531547
0.2074349 7.2566586 1.7139499
0.43297648 9.11606 1.669472
1.3372629 8.005283 1.2560036
0.7400539 9.592501 0.80488443
-0.17913601 12.376987 -0.40261054
1.4930959 0.29459298 -0.19962981
-1.0056508 8.491493 -0.19351631
0.41331977 9.639292 0.31616676
-0.48589534 8.0275955 -3.0065145
-1.7291939 9.772024 0.60341644
-0.41122657 9.864414 0.82241905
-0.6867217 7.856228 -0.27146107
1.0271211 9.046402 -0.036751606
-0.21695039 12.702084 0.17341541
-0.22671121 4.89188 1.0757377
-0.12657538 7.254539 1.2750804
-0.4244179 4.616358 -0.67042744
-1.9192605 -4.6085196 1.368314
-1.5618591 9.736414 0.22396281
0.04937946 13.203096 1.1310265
-0.72989976 2.7334685 0.103838116
-1.2529788 4.3806515 -0.10188854
-1.1560493 10.708843 0.5774355
-0.5890634 6.976781 -3.4495032
-1.7399995 3.8042707 -0.2209676
-1.7496314 9.078324 0.7074052
1.3962383 9.854542 0.97705257
-0.7160768 7.06231 0.42358804
-1.4370985 2.5959358 0.39530975
0.49370432 3.2456274 0.213301
0.116598144 2.8181553 0.84673905
0.7320786 6.1913404 0.8087691
-0.9508233 4.159684 0.11824714
-0.9579196 8.932898 0.58572376
-0.8490295 13.153172 -0.08833617
-1.4478421 1.0501499 0.57950115
-1.1192613 5.1550236 -0.06907782
1.5921593 4.5949316 0.14466116
-1.7308526 0.35708714 -0.14097485
0.009904089 7.679824 -2.2578726
1.3316431 6.293627 0.39252
-0.41647565 4.916106 1.4371767
0.41881305 1.4715092 0.7670177
0.037961155 3.4175143 1.1202002
-1.030894 7.6687307 -0.24446177
0.43933302 10.268541 1.1459472
-0.003517993 6.7776423 -3.8271685
0.22787258 5.4805527 0.24489874
0.70108175 10.930325 0.88300097
1.1355083 2.450344 -0.45578128
1.9266689 -0.053155266 0.28287017
-1.0101125 0.96344995 0.7012017
-1.5988853 2.9941125 -0.3321445
1.6177983 -0.8235369 0.07632594
-2.6198053 8.493179 0.24748492
-0.7985686 12.4273815 -0.14715838
-0.9383824 7.965049 1.1915598
0.51722884 7.897338 1.6295754
-1.1301422 2.87013 -0.29176742
-0.57947946 1.8651347 0.5144386
-2.6452432 7.8081875 0.06341572
-2.2046843 0.3969221 0.71241784
0.38043916 6.888461 -3.6594014
0.18359014 12.074445 0.6905246
0.83297753 9.325573 1.6088169
1.9382894 7.461261 -1.1564612
-0.45476353 7.6486197 0.9402323
0.52708423 5.6644325 1.639437
-0.82915485 13.4973135 0.21610466
0.07539892 7.2093315 0.23298532
-0.98886263 3.0302887 1.3800881
0.13324243 2.6099877 -0.13552943
1.7283864 1.3826845 -0.06640698
-0.43055236 5.3826904 -0.19641218
-1.3955636 7.877287 -0.15162846
-1.7080863 -1.6419067 1.3460126
-0.92553043 7.3118362 -3.981986
2.173429 9.274788 0.22435266
-0.29260236 5.91681 -0.62896836
0.05143079 7.634343 -2.9989338
0.65364456 3.9015565 0.42239988
1.2327609 5.3029795 0.33030206
2.1264725 9.788517 0.9558188
1.9732556 -1.7615945 1.0196538
0.17096192 6.8662453 1.7156658
0.49873394 8.726314 1.6363777
1.4360471 2.7125134 -0.38624576
2.2581806 -2.530469 1.1385167
-1.7753255 1.7473714 0.2963816
-1.2079222 7.796819 -3.1734746
-1.2664411 7.2054577 1.4670763
-1.4932797 0.39596534 1.4426067
-0.14870167 12.250042 1.0610853
-0.39767587 7.197419 -3.7681112
2.090742 9.670887 0.28717536
-1.1388203 7.175548 1.0357708
-0.022165826 12.065216 0.34139216
-1.4704776 0.28534228 0.11831212
-0.20931065 7.513279 -3.5380282
2.5676665 7.3699846 -0.32113478
1.1710005 1.7691131 -0.34767395
-2.2486181 8.257973 0.49326372
-1.3784521 8.797754 0.46106943
0.1515925 2.4892397 0.64784527
0.60477066 6.050852 1.3620389
-1.0009189 3.7203646 1.5474987
0.27190286 8.332972 1.3350313
-1.0442419 1.8942485 0.7266084
1.9362032 0.6947161 0.37310773
0.9125668 6.8587685 1.6208096
2.5082881 8.657936 0.83066475
-1.3445728 9.2250805 1.4017701
0.7455509 10.674669 0.5581621
-1.3796811 7.085993 0.77615964
-0.7757945 8.697056 0.89624727
-1.7285628 3.3144026 0.40250915
-1.2257223 6.9705944 0.4304471
2.6091304 -4.000519 0.29078794
0.275357 6.8199434 -0.459018
2.212675 -1.0326133 0.8803189
-2.6463118 -4.270195 0.70327866
-0.30476165 8.550116 0.7452954
-0.8104342 3.1674023 0.9705576
-2.0773935 -3.4715977 1.229464
-1.8305922 8.820648 1.0307212
-0.8408029 2.6739216 1.3577099
2.0558872 -2.863957 1.1720066
0.18465325 3.6285524 0.102144554
0.7647866 2.5125446 -0.45263755
1.562783 1.4358044 1.1314018
0.4115632 9.391533 0.6199837
-0.32462168 4.5218296 0.36134195
-1.703985 4.9057016 1.108475
-1.3097365 1.1248984 1.2622669
2.6861482 -4.6053095 0.013102446
-0.28598648 3.227013 0.50360274
0.23397702 3.8504262 -0.28240114
0.6650616 7.8975077 -3.6467419
-1.9416149 -0.16681865 1.5619705
0.27440912 8.326389 0.26735634
-1.1550832 4.9925413 0.2865998
0.3734644 12.382837 0.71620077
-2.6694617 8.779982 0.48361915
0.8116821 1.4169021 0.65391695
1.3432114 0.7962804 0.83269435
0.73446846 10.44718 1.407871
2.019669 -0.082684964 0.7134619
-0.35927343 7.4925575 -2.202567
-0.54695857 4.1391325 0.45770097
1.9223292 2.3152475 0.34506267
-1.8094828 10.199585 1.277178
0.23738387 6.1673965 0.43002212
0.7165146 5.4869137 -0.44583696
0.84815073 4.8838563 0.7074317
-0.81059563 12.737034 0.9805646
0.7685386 6.7603617 0.997406
-0.3367627 9.083649 1.6212106
-0.3512641 6.7837315 -2.585153
-1.0079784 4.4330473 0.6398239
1.439507 -1.3719735 1.118089
-0.0011661074 6.570758 0.9446449
1.2562697 3.7671413 -0.07920079
-1.3561802 9.606829 0.7158301
-1.1889625 7.0308514 -3.4341645
-0.5833924 12.505789 0.16561328
-1.838675 0.73713934 -0.16202778
-0.66950846 8.782232 1.2908864
0.114016846 3.593317 0.77231854
0.42086637 8.121016 1.0307326
-0.25054345 8.236591 -3.2087016
-0.2141039 7.3309927 -0.45243776
0.3505082 3.6108885 0.41817182
-0.84580433 7.4135036 -0.034478378
1.7763333 9.9128 1.1829574
0.4421838 7.485979 0.31306112
-0.43657392 12.185013 -0.13504015
-1.4233022 2.8496327 0.8077707
-0.69820845 6.9235106 -2.568862
0.7172185 7.100157 -3.5021195
0.7706835 4.7012873 -0.5871948
1.8132355 -0.6303407 1.0599399
-1.1096554 3.7663236 0.1836074
-1.1335564 5.430292 -0.34313422
-1.1332288 7.3830223 -3.0079303
-0.28827536 3.9027638 0.6666584
-0.4362499 13.708431 0.09457719
0.55469596 8.999674 0.57992876
-1.9474509 -0.14599836 0.4326415
0.8991301 5.9565334 1.0659018
-0.58362615 6.5979013 -3.252933
0.8115312 -0.3154695 0.5100454
1.4293013 8.98037 0.15989873
-1.3448677 3.8497171 0.44039816
-0.0014292274 12.814863 0.87840044
0.11654042 7.016218 -3.3076272
-0.95434654 13.121197 0.27768183
0.36676896 12.173 0.2845012
-1.269542 -0.16177127 0.90511787
0.6599319 5.2051487 -0.1820929
-2.3201504 -3.7934957 1.0865624
0.8267174 3.988749 0.7632606
1.0422621 5.21904 1.4482772
1.3662486 9.990696 1.3738697
-1.3692012 2.383515 0.040922403
-2.0133405 1.5212262 0.005109724
1.9575388 -1.4664459 1.4035776
0.6983887 0.3935604 0.53304935
0.20228375 11.955334 -0.4411332
2.4389668 -3.7142134 0.57804334
1.4295161 -0.12407532 -0.10642782
-0.34817976 8.06205 -0.3018853
1.6665127 -0.030127455 0.5905882
-1.185036 2.1350188 -0.26806676
0.13941479 6.2182245 1.2671165
-1.5269322 5.7186337 -0.15227252
-0.909376 9.450928 -0.055325806
-0.74953187 1.7082098 0.17939374
-0.20053166 8.507093 -3.5963264
0.76988065 1.2396188 -0.14613906
1.5401654 5.0471373 0.12209894
-1.1683378 2.0016975 0.15768504
0.1629355 4.5547733 1.7739148
1.4771591 7.536216 -1.8317099
1.6948745 7.487932 -1.464752
1.7920678 7.20138 -0.90629846
0.22441998 4.1095343 -0.64804304
1.0873759 5.4669323 -0.27448392
-0.7402314 10.795315 0.4768855
1.0953622 3.1428075 -0.20377454
-0.71730304 6.581092 -0.4179744
-0.20957756 7.523368 -3.9298048
-0.5655005 2.107082 0.15562415
-1.3094525 6.2046213 0.55965626
1.7052414 0.68309987 -0.040827647
1.1084158 1.950428 1.2843342
-0.5601053 8.381351 1.770016
-1.094933 5.207139 1.5914862
-1.1682324 2.5116878 0.9861418
-1.5860124 7.312047 0.08622001
-1.7155097 5.018914 -0.0753281
0.57305837 2.1736794 0.15239441
-1.6827099 8.470032 0.957055
1.1817422 3.0404987 1.1186402
2.2074256 -4.2841434 0.54670084
-0.49337858 9.527622 -0.09898557
0.39071548 9.596128 1.0822895
1.8812785 0.36111057 1.2229311
2.1530032 8.739252 1.0689971
-1.6768516 6.540592 0.21733427
-0.20641804 11.606167 0.39241135
-0.2824034 6.6061306 -3.5698776
-2.7680316 8.008715 0.4125371
-0.7825326 1.7231925 0.9162266
-0.109064 6.601918 -0.23417923
-0.8840699 4.8029766 0.49418044
-0.08645419 13.402967 -0.40890592
-1.6358984 -0.18608344 0.695408
0.17634964 6.6574125 -3.0934887
-0.8619364 9.487383 1.3244228
-0.873677 2.08388 0.42169452
-1.2018673 1.0010991 -0.016477346
-0.4963587 7.3328648 -3.3146913
-1.3833516 0.86852014 0.9196385
2.5032668 8.098587 0.3714373
1.553041 -0.6154293 0.39304712
0.77286613 6.015852 1.6649494
-0.2613768 11.502686 -0.2115381
-0.5387156 5.947798 -0.25025362
-1.8556714 7.93622 0.5450119
-0.80933154 4.8113756 0.075919464
-1.5199006 6.058956 1.1364238
1.3955958 7.1502647 1.0887861
-2.264461 1.4390676 1.0189664
-0.3541625 6.826392 -3.9461956
-0.5406271 13.282906 0.25998706
0.6378268 7.233597 -2.6677887
1.0824437 -0.5072088 0.3023836
1.1980853 5.5525055 1.2571917
0.7294957 3.2954764 -0.20206043
-1.499109 8.364838 0.5350629
-2.4782043 8.158781 0.13484277
0.111827195 3.262525 0.3808424
-1.5087368 9.227776 0.98435557
1.2635775 9.096521 0.71052945
0.51176274 6.5258408 -0.39867175
1.169564 10.382994 1.3323541
-1.2815316 -0.11234267 0.4841963
-2.3193698 -4.598709 0.47993279
-1.015419 6.527319 1.523191
1.3073628 2.4370465 -0.08745632
-0.593347 4.743354 -0.32101715
1.3878314 0.6790143 -0.27945185
0.3022524 11.011999 0.97355926
1.482131 1.5590196 -0.28331858
1.4204834 -1.0355334 0.9205463
2.35074 -4.2607975 0.1326533
1.7359476 0.008453583 -0.023137819
0.62010133 4.5353146 0.059592925
0.14423874 7.7637405 -4.14293
-0.5212631 8.068405 0.08656156
0.20341687 8.110403 1.7007093
-0.474639 3.868072 1.0553608
-0.98155403 2.3817372 0.19628218
1.7256665 0.91967547 0.73301053
0.5503447 7.4678774 1.6160753
1.6684755 4.8137283 0.42747724
1.3036807 2.252749 1.125931
-0.114912204 7.391514 -0.090645164
-0.76544106 7.573393 -3.147125
-2.6849189 -4.1805506 0.3185222
1.6729726 2.8629603 0.8008189
-2.0178552 -4.224596 1.5673327
0.18051286 7.380419 -4.135556
-1.2921298 -0.6635523 0.94178486
-0.8745816 3.3919845 0.27583212
-1.6269591 -0.4356019 0.34967583
0.6488587 6.7030125 1.3343999
-1.9173565 5.06573 0.3052997
-0.35399824 7.922573 -2.6510663
0.8058913 2.4351902 0.251226
-1.2634485 4.347549 1.0913169
-0.26587862 5.0460434 -0.34358895
-0.7451172 12.081511 0.107821055
1.5120988 3.277635 0.34511268
-1.3868628 7.4881344 -0.16919401
-0.8343513 1.2592154 0.39983678
-1.1215982 5.399948 0.38400668
-0.9974427 6.8675766 0.7843536
2.6160688 7.665909 0.28633693
-0.30768782 5.382494 -0.6282979
-0.047997028 9.497164 0.5984047
-0.3696134 7.085166 -2.329823
-0.37773114 12.777515 -0.57930446
-1.4083011 1.6292207 0.13905105
-1.1188605 2.7508326 0.11372022
-0.6003424 5.707508 -0.55706716
-1.6440246 7.5788336 -2.5204258
1.9721198 -2.3666792 1.2577758
-1.6388361 4.4825735 1.2133586
-2.0759015 2.010303 0.12666306
-0.6422298 12.427641 -0.51690936
-0.6486664 5.808281 1.7887259
-0.75097597 9.557844 0.31611443
-0.6327307 5.7218933 0.7265912
-0.031427212 6.769805 0.20691684
-1.1485171 9.411934 1.0631561
-1.7437322 2.59408 -0.26570344
1.9385676 -2.0838065 0.77142274
1.742032 -2.103486 1.058034
-0.971966 7.891666 -2.5509322
0.8168646 3.973374 -0.22721034
-0.95653963 6.2433643 0.3137678
0.5830203 7.013198 -0.32479787
-0.72140455 9.8309765 0.033755347
-0.5985044 9.829346 1.5716908
0.46439415 3.948533 0.06678127
-0.8786453 6.186698 -0.13170359
0.92771363 5.2944307 1.0390642
0.7360168 10.245869 0.6219144
0.8297144 6.913601 0.19794178
0.77140266 0.049829155 0.3776632
0.35409033 8.085255 -3.8480787
0.98668826 3.5780697 -0.2413454
-1.0259304 8.093353 -0.19208708
0.4700002 2.343594 -0.25807744
-0.64548904 11.184563 0.35189736
-1.578891 5.3322105 1.1546926
-0.6629642 8.30442 -0.24123076
0.37888306 9.6003685 -0.044163354
-2.3187847 -0.32409 0.26963347
-0.114491254 4.3902674 0.009531615
0.36647072 8.360563 -3.0706854
1.4070985 -0.1323246 0.90063655
1.7940161 0.36167032 0.16499153
-0.08395991 3.8122983 1.0825233
2.0533466 1.0066376 0.90548587
2.088263 1.1111727 0.51519775
1.4402297 10.119137 0.3101673
-0.3389585 5.718481 0.40068454
-0.5291791 8.729908 -0.24161705
-0.6726768 3.7684712 0.6923804
-0.54526687 3.1652575 -0.3849771
-1.3782053 6.4092693 1.3682706
2.3464038 7.8064203 0.14413767
-0.93032014 12.577951 0.6553167
-0.63310456 13.483503 0.8731296
-0.25403714 4.228112 -0.60684025
0.40138072 2.7336159 -0.40694296
1.0822823 2.4642844 0.9166329
1.2913847 5.109396 -0.20127809
3.078044 -4.577565 -0.1367425
-0.60813093 3.6609488 1.4513874
-1.2184306 3.6173835 1.1597807
1.123277 4.1581745 1.3433297
-0.78312397 9.730511 0.6401179
0.34790498 6.9091434 0.28350717
0.5943303 8.594032 0.53807867
-1.3788376 3.7591982 1.4736924
-0.83154297 2.0810816 1.1014266
0.3779708 7.285035 0.93341625
0.98905563 9.364222 1.1188235
0.6305722 5.584833 0.93662465
-0.9838549 2.4825664 -0.20987207
-0.672204 9.438442 1.6527758
1.4301507 4.7807055 1.0398347
0.11421043 6.467329 -0.55853164
1.579551 9.2174015 1.2435598
0.9101073 3.5510101 1.3703022
-0.70176214 7.2759714 -2.366763
-2.2504835 -0.68782914 0.17471188
-2.2751956 -1.3629539 1.3278317
-0.34081256 6.5039167 1.7487729
0.8257488 6.6665516 -0.22713646
1.7647045 3.0733376 0.022434443
-1.9512911 3.8759642 0.78982997
1.016113 8.271339 1.3327279
-1.4230726 10.399393 1.3493481
-2.046474 -3.0537386 1.2650509
2.263042 -1.6568992 1.1906013
-2.9789395 -4.581047 -0.3285445
0.7366072 4.2123413 1.573891
-1.88166 2.8524766 0.82801396
1.9427633 2.2202892 0.7161762
-0.102395035 9.660336 0.935717
0.45193768 6.4059772 1.1379607
0.83564675 8.482922 1.6336975
-1.9614139 4.309181 0.25810966
-1.1025946 8.666208 1.1769164
0.565135 3.9746146 -0.5907526
1.473875 4.363022 -0.13927665
-0.93180525 6.065055 0.7511698
0.6059575 9.011162 -0.145585
-0.5249138 3.1661382 0.14003685
1.7247586 0.54736066 0.77497625
1.3225069 1.867631 0.40296042
-0.004008784 8.076862 -4.0870266
-0.6093452 4.5427723 0.65513206
0.3300017 10.051735 0.44997543
1.6353619 4.158347 0.105239704
0.97113526 7.520051 -0.12857872
1.1529036 1.3574288 -0.3381678
0.20798779 11.755735 0.35631943
0.108747065 8.384296 -2.7772646
-1.737072 10.282513 0.85293555
0.53628016 10.011723 0.11357361
2.1934752 9.398056 0.97119373
2.0402179 0.028802086 1.1045144
1.2405603 1.3333464 -0.012362986
2.5195246 8.588358 0.44993496
-1.7391908 8.127214 0.8141422
-0.18261203 11.214273 0.41318637
-0.17746988 9.822332 1.5116336
-1.2550955 8.043026 1.5506558
-0.15261364 5.9396935 1.3759831
-2.3701987 9.567324 0.3888874
1.0933897 2.826901 0.48637897
1.3063233 4.0693216 0.2399359
0.9742035 1.3046396 1.081373
0.40619767 7.7456255 -3.1485853
0.20627494 4.8398285 1.0687313
-0.24552837 3.2109365 -0.20982024
0.5331259 8.15855 -3.4128377
-0.21210858 3.4076734 0.1579903
-0.13693413 13.431547 0.31811184
-1.2507944 4.6049595 -0.47982305
1.976759 -1.0463831 1.4175246
-0.84332 9.908085 1.240377
0.08793706 8.0825615 -2.440186
-1.9824789 -4.235862 1.121103
-0.6964592 6.521842 1.7619357
-1.8536408 -0.8275989 1.2396743
1.3733222 3.5632625 -0.40156072
-1.6678169 -1.4401951 0.9826343
2.2666698 -2.7639012 0.8500798
-2.3580894 9.206589 1.1729591
0.84322643 1.9262922 0.02249492
0.04991418 7.0518456 0.9589708
1.569529 5.0723333 0.79857373
-2.5332437 9.233952 0.44537836
-0.4961136 4.202135 0.08255918
2.5729423 -4.325629 0.9094496
0.9920012 4.2180853 0.45152676
0.015668646 7.5020685 0.98915493
-1.7311416 3.1165018 1.1118021
1.8739684 2.6097112 0.59811497
1.441072 4.026514 1.0886335
0.7891842 4.22153 1.1319273
-0.010707058 4.5271997 1.043087
-0.28716177 7.9237967 -2.2754254
1.0859494 7.630168 -2.5881686
0.74623156 4.431327 0.7288438
-2.3304882 -0.37697852 1.0387356
-2.2399912 0.767805 0.50439835
-0.105976105 5.3814545 0.42757183
-0.49572474 6.8661985 1.8192778
2.2404022 7.7382803 0.49383533
2.5366096 -4.5781326 -0.61874235
-0.73292387 5.1058054 -0.22867385
-0.43472075 9.496748 0.6600336
-1.8679326 -0.7516755 0.2735806
-0.23773399 4.5975475 1.773711
-2.7596955 8.612387 0.8927089
1.3716338 0.49777162 0.16197804
-2.633102 -4.602766 0.15502405
-2.502102 -4.1983566 1.089354
0.063208036 7.2082987 -3.7084117
-1.6285827 3.6614344 0.18624663
-0.9548402 7.78322 1.5360363
-0.708591 12.325956 0.8070543
-1.4570243 4.015275 0.043222003
1.5055456 1.2303462 0.21955341
0.3031127 7.090109 -2.5397224
-2.6352901 9.302615 0.9129111
-0.015537687 3.1980095 0.7676958
-2.46761 7.1748686 0.08613959
0.01748324 13.1756115 0.68723845
-0.47532576 10.519461 0.24808154
1.8272789 1.7793787 0.017221097
1.1618316 6.089554 -0.038286142
-1.3785422 4.8020372 0.007725857
-1.5287025 7.425288 1.1747818
-1.5681844 9.397629 0.5121627
0.58758545 5.327404 0.21173081
-0.88100255 8.365438 -3.3686934
0.6762912 8.558147 1.2670512
0.6791514 3.3665428 -0.58409226
-0.86306214 8.526865 0.4822517
0.363721 13.091852 0.9441129
1.3257868 7.427966 0.39609867
-0.3125515 5.3150673 1.0990878
0.27735448 7.4349203 1.3193979
-0.16869244 4.9655886 0.37925744
-1.3941455 5.092015 1.3876836
-1.0385954 5.8377094 1.1206422
0.8494588 0.7355559 0.72967327
1.958498 8.382412 0.87190896
0.23252198 4.5459814 -0.25015783
0.86743164 3.2372174 1.2231436
1.5698943 2.0550501 0.1622911
-1.1241469 5.16168 1.1170888
0.19570997 12.305878 -0.5553976
0.047601238 8.00202 0.4963014
1.849515 3.0426369 0.4634379
-1.2719097 2.1349201 0.9623138
0.34923434 3.1683078 -0.52698743
-0.026533026 5.557788 1.2618542
-0.1632795 11.793112 0.049890146
2.3755956 7.4714737 -0.6654769
1.0975225 5.9048977 1.4057052
0.24190548 2.792889 1.280484
-0.5525757 8.829422 0.5282521
-0.3749345 10.214106 1.4648387
-1.302558 9.15448 0.6643175
-0.8501483 7.750758 -3.5243773
0.00018340089 8.5921 1.3069859
-1.3118286 10.758044 1.1964753
-1.1511319 5.1219463 0.6679183
1.0919297 8.98918 1.0427501
-0.7273698 10.438888 0.66603327
-0.529019 4.889451 0.37053466
1.1248155 2.659359 0.17959186
-1.6720898 4.1670322 0.9187598
-0.2006374 6.4642105 1.3390324
-0.70300424 8.419422 -3.0362668
-1.6033492 -0.74368453 0.60756636
1.5418365 5.6060877 0.41232228
0.39469117 7.8048677 -2.4299455
1.5033333 0.2344751 1.3185899
1.0642018 2.61243 1.2599075
0.18466279 8.556004 1.6892133
2.1873436 8.136249 0.21930528
-1.7677925 4.2548485 -0.119920135
-1.45977 4.7485123 1.3887012
-1.6941786 5.664406 0.8955859
0.5070684 7.562669 -3.4794502
1.7943056 3.6177201 0.6232006
0.79573286 2.7774205 0.7249491
-0.8507649 8.334547 0.11877416
0.009203744 8.53512 -3.2103958
0.6340463 3.1418705 0.87402177
0.39058378 3.305284 0.67205423
-2.0948539 2.7781625 0.2587793
-1.7250755 8.703011 0.58907247
-0.06929405 6.255824 0.7027426
1.4645646 1.2403009 0.75144637
2.3313422 9.484636 0.62298214
-2.0355844 8.755844 0.33408618
2.1212807 -0.72259355 0.6920459
-0.49289298 12.9616995 -0.065402806
0.34341586 12.601549 -0.35197413
-0.4408841 4.507168 0.99499774
1.1925805 9.19622 1.4296193
-0.9365326 6.207802 1.2665076
0.2113289 7.041147 -0.09931669
-2.07618 7.4728613 -1.706255
-0.46366817 12.066019 0.9377371
-0.21075174 7.1685076 1.6545038
1.173563 7.179755 0.16684844
-0.37997657 7.256716 1.0064485
1.9682002 -1.9331074 1.3382413
-0.44305247 9.635344 1.2313397
1.3387771 4.060524 0.62988794
-0.96816146 4.0404215 0.8846971
1.112041 9.195717 0.37289423
-0.12954938 12.023251 -0.6803502
1.7114093 3.8899298 0.36386847
-2.2833872 8.500462 0.18345341
-0.76346564 4.597122 1.3821385
-0.36992186 2.8206139 -0.11865924
-1.8348606 5.446699 0.4826777
0.4893195 4.6749163 0.45851266
0.041000802 8.993752 0.13308498
0.41385883 12.52828 0.0840812
-0.7277721 6.156803 -0.49801624
-0.9437518 6.449664 0.69040096
1.3601632 10.589249 1.043587
0.22026128 7.9574385 0.05739943
-0.14201924 5.35499 1.680834
0.3384645 8.243349 0.6680702
0.44842923 3.8358622 1.5814755
-0.8748425 10.454618 0.2977363
-2.3336225 7.5011826 -0.5611839
-0.6409308 6.695752 -3.6648746
2.1367345 -4.3011284 1.4063709
-1.747565 5.8115215 0.123162076
0.15719146 12.818989 1.1897991
-1.5537174 1.9991868 0.06206344
1.2234344 4.862095 0.18370333
-2.6271043 7.2912493 0.46288007
2.4301968 9.023102 0.506737
-1.1199815 3.5670958 -0.43036252
0.043309182 6.9000044 0.60092664
-1.2694914 0.6943457 1.2885368
1.2215326 0.5609369 0.60165715
-0.16831815 11.124729 0.0017565303
-0.65872276 3.2583275 0.6381234
0.879448 6.4626236 0.15304318
0.051762894 5.934554 0.94946146
0.5916194 1.3658268 1.0726724
-0.7398635 7.1377907 0.8152225
0.28286573 10.499798 1.3928108
1.4318342 5.9287977 0.19913155
-1.5752189 8.125202 0.18368983
-0.6129813 9.194719 0.6108897
-2.2343965 -0.19408548 1.3483057
2.4370205 7.6251316 -0.14124027
0.4564631 4.2034655 -0.22128427
1.4902225 1.6909955 0.7539309
1.8047137 -0.9929874 1.0503733
-0.26171577 8.520472 -2.9262438
2.2217555 -2.3467379 0.7837573
0.17974341 13.615561 0.53208923
1.7468834 10.004383 0.6962335
-0.038301155 6.64215 -2.7835546
-0.07408166 5.2099676 0.031890422
-1.9539771 -0.3886637 0.07560696
-0.17465374 4.62621 -0.3493411
1.1255431 10.426107 0.43429917
0.17943317 7.5591497 -3.7499127
-1.3376646 7.505207 0.8344468
-0.5654658 10.17524 0.10625844
-0.24630624 9.168076 0.3905105
-0.37942666 8.100365 0.5024166
-0.18865827 6.5236626 -3.1707525
2.2272124 -3.214027 1.0937648
-0.9251201 6.6968393 0.3764025
-0.928172 3.8873887 -0.5064812
1.2139001 10.158663 1.0543466
1.4093113 8.853861 1.2852032
0.115677536 13.498331 0.9048939
-1.0202026 7.730159 -2.8631492
0.5290259 8.540569 0.086341925
1.1797047 8.79689 0.38844788
0.8925015 5.5813904 0.30538356
0.8807368 6.7906027 0.5727514
1.0784233 0.28556895 0.39845148
-0.33613765 9.327274 1.0323157
-1.883136 2.2143 -0.14256904
-2.144874 9.715349 0.7704208
-2.0095935 -1.5397527 0.8081442
2.0633392 9.15156 0.60503507
-0.2626614 6.1975365 1.0631652
-0.5550842 6.110446 0.10700421
1.7066495 0.16815796 0.9236536
-0.6784142 1.539227 0.5863492
0.13044447 7.649994 -0.38012093
-1.6051123 7.224122 -2.5955527
0.1411632 4.938427 -0.35449797
-2.1015964 3.5055752 0.5020044
1.4190075 -0.13030806 1.2933092
0.7547673 8.373985 0.85840964
-1.7894032 5.419178 0.068103716
-0.11289914 8.058992 -2.8859463
-0.60574293 6.6299458 1.384834
1.4820366 1.8803358 1.0961261
-1.9774814 2.4849935 0.91067296
-2.1659431 1.1100838 1.1821461
-2.0373821 2.101029 0.98229194
-1.2848547 7.591915 1.5349815
1.141278 1.8713803 0.87122846
-1.7055786 -0.9356338 1.5852327
1.0014033 9.790819 1.1119719
-1.0753741 1.6561027 0.38442272
-2.5797548 -4.5979357 0.92319465
-0.64481026 6.015355 1.0201638
-0.2555803 2.5836182 0.55338037
-0.34183174 4.535 1.3586614
-0.73483616 8.7726145 0.15274478
2.0305357 -4.632535 1.2054551
-1.444102 1.2700481 0.93176067
1.1083145 -0.13640642 0.20972264
-0.4815938 7.7472267 -3.361401
1.6083667 -1.2362511 1.3999467
2.255087 -2.1001668 1.1266873
-1.7056286 3.6732378 0.5887127
1.4112376 10.6439705 0.6611633
-0.83027124 7.9716034 -3.1225734
-0.56350106 9.191614 1.3112184
-2.0478964 7.1910057 -1.5154469
0.10123496 5.213169 1.0182893
-0.51994836 4.9320726 0.7493479
1.0549529 8.024345 0.60074127
-2.0202413 9.753283 0.30881447
-2.6328707 -4.333083 -0.13860086
-0.8343518 6.7752666 -2.9078264
2.192472 -3.4487605 0.752105
-0.89555347 3.2293124 -0.38793772
-1.6784072 1.5690548 1.1185622
-0.18504328 13.062798 0.27129668
-1.605371 -1.0180295 0.979332
-0.13317499 6.166648 1.6524332
-2.2691798 8.795343 1.0484955
1.5380008 8.977339 0.94809985
1.14801 9.555288 0.7872733
-1.9404888 1.1146421 -0.038420223
0.19412738 5.29247 0.6398977
-0.5415926 5.274707 1.4433107
-0.9982219 10.121275 0.15383053
1.6782048 3.4107165 -0.14715758
0.8041347 4.8861704 1.5867288
-1.5309763 7.068676 1.1614704
-2.4340172 7.4569817 -0.13925725
1.899831 -1.36555 1.0491862
-0.34783614 10.625805 0.5762445
-0.71206236 3.5393915 -0.50613177
-0.12095216 11.070526 0.9807049
0.2414167 5.593136 0.90809584
0.5236722 10.123257 1.5339227
0.8496896 8.025213 1.0019426
-0.13805848 12.9163 -0.21102509
-0.10224511 4.1693096 0.37309492
1.0314052 0.7025894 0.30429685
-0.51161456 4.3220406 1.6478729
1.5988184 5.2341228 0.4763611
0.82103527 4.4427214 -0.2554708
-0.21722257 12.341291 0.108053595
-0.60043544 8.337477 0.770108
-2.3518004 8.378292 0.8913369
0.22899473 10.346872 0.22074693
-0.8279518 12.343611 0.37270153
0.15741238 11.018051 0.25974357
1.6405821 -1.6791012 1.2844038
-1.1031066 8.785109 0.18530609
-1.186703 7.2263327 0.1619097
-1.1870997 7.8924847 0.8946934
-0.24282098 13.411676 1.0478594
-0.5308423 7.998679 1.7885513
-0.44231987 11.386442 0.106372446
0.09156248 6.374608 0.17394516
-0.47115517 5.36333 0.68222225
0.07376832 10.173687 1.4500811
0.28572178 10.646374 0.87547445
0.94392765 3.8259845 0.15201452
0.13201225 6.450783 1.6929734
-0.16492939 10.3089285 0.14207608
0.6755259 7.7572203 -2.7562447
-0.22896484 6.580345 0.51777184
1.3794982 3.0877748 0.6440954
-0.46420038 8.4591465 0.37075704
-1.6979265 6.824772 0.9063821
-1.0563297 1.8401518 1.2410152
-0.019889444 2.884993 0.4880479
-0.06290206 10.707386 0.23126772
-1.9448559 -1.264369 1.150383
-0.14630476 7.1104107 -4.1319723
-0.29000968 5.802391 1.7441144
-0.61311233 4.1730165 0.8388479
0.59579337 3.7043843 -0.29894727
0.9086182 7.3795156 -3.253726
-1.9498987 10.622858 0.81290555
0.29578483 4.7514715 0.06224764
-1.8584561 -0.36454314 1.2395232
1.6102295 10.269894 1.1483598
0.78910124 7.4722013 -3.6380405
0.8349936 10.194889 1.092483
-0.38222438 10.859535 1.2276745
2.0032458 8.515398 0.21462396
0.63406026 4.937192 0.15264305
1.3357944 4.4703455 0.40932482
0.7841228 4.2069817 0.11140384
0.24262536 7.637295 0.6576489
-1.7518682 9.016724 0.30631536
1.8879533 9.50681 1.1624062
0.8834208 7.415683 0.24381295
0.87863743 7.900792 -0.19793248
0.10583781 11.281767 0.72554827
-1.8657436 3.5314608 0.96096504
-2.843862 -4.5871944 0.5296303
0.73550403 3.507378 0.50369024
0.27598554 2.8949142 0.15087578
-0.8713075 7.5410376 0.8335353
0.17193818 12.447119 1.0601678
0.9044525 0.03509313 0.72511417
1.5145819 2.8503823 0.3556965
0.08478321 6.0687675 -0.60732615
0.21431798 7.028449 -3.9953847
-1.1278098 8.170961 0.5564318
-2.1172552 -3.5797129 0.818722
-1.3549047 9.4213085 0.01294505
0.49408633 3.7187119 0.77018046
-0.85230017 7.147917 -3.1733017
-1.4117651 3.0141077 1.2666332
0.8678806 3.517313 0.89186597
-1.4421074 -0.7788416 1.2994664
-0.41004014 9.841192 0.41134137
0.2573164 3.1768832 1.425139
-0.76333624 7.272414 1.1691028
-0.46834922 6.621694 -2.8768227
1.5353578 -0.24333327 0.3061828
1.3843775 -0.49217492 0.019867182
0.77829885 8.91691 0.24629664
-1.5578368 4.424365 0.16817103
1.1280482 3.3816762 0.49682337
1.7161379 7.2004933 -1.2735475
-1.8327785 1.8251143 -0.18738496
-1.5934273 3.2123747 0.061786763
0.281497 5.8164806 1.3101466
-2.0167618 -2.7850835 0.9303062
1.2812307 2.1188374 -0.4153608
-2.5554276 8.507719 1.174007
1.0442555 1.0821521 0.13489953
-0.15961915 6.175001 -0.26963842
2.2759867 7.332858 0.19525316
-0.32362732 6.299102 -0.5853126
0.26912284 4.329585 0.14665726
1.7970483 9.311707 0.31757957
-1.6528299 6.4644423 0.6106961
-0.09277533 5.603737 0.05617845
-1.8955724 3.9670987 0.09633325
-0.9733441 12.972641 0.6596559
-0.7118913 4.2548437 -0.5699835
0.49633288 6.164241 -0.49929821
-3.004013 -4.553978 0.10082108
0.60595846 9.872925 1.2541997
1.0016086 3.1357718 0.7960217
-1.8970127 -2.0957403 1.3793473
-1.2282741 3.9780993 1.1588683
1.749712 9.263035 0.805333
-2.3176842 10.400167 0.7110237
-1.0044761 9.777969 1.6227229
-0.27012604 6.448509 0.091265246
-1.8744658 8.352279 0.4357404
-0.8761686 8.59013 1.5720007
1.0404744 8.606642 1.0259125
0.36770612 7.531331 -2.7471862
0.4104538 7.8984785 0.3905133
0.21819237 2.186686 0.42191136
-1.5317695 -1.2294531 1.3270657
-1.0741005 10.231977 0.6953311
0.591918 9.235031 0.96712756
1.4855151 9.60306 1.3061125
-2.2579203 -0.6236968 1.336283
2.3222713 -4.6209526 0.24610183
-0.85420454 12.787638 -0.016644768
-0.3528419 7.6025963 -2.9740224
1.7272892 1.1989279 0.4812733
-0.04406915 10.018126 0.74510944
1.1182489 2.8935108 -0.5204209
2.5922933 7.0793705 0.35330367
-0.33391845 3.960227 1.4562073
0.08489795 3.9975767 0.7635366
-0.08558898 10.079422 0.37473196
1.1609392 3.9220805 -0.5112523
