0.60737693 5.0777597 0.49666178
-1.5093379 10.840805 0.47168207
-0.40592605 2.7718482 -0.37400132
0.92299557 6.314019 0.9443158
-1.0727053 9.51652 0.52422976
1.1846435 6.1248817 0.60203326
-3.3160648 6.9993963 -0.62810254
-2.271296 10.143023 0.9111495
1.7594292 2.0086207 0.50446486
-3.953988 6.51015 -0.9731556
-1.5603344 10.521999 0.17311406
2.2694297 -0.35093778 0.6563755
0.337604 4.050102 0.43461972
-2.0798764 -3.9239612 1.43224
1.154875 9.743238 1.2660911
0.4882093 5.750681 -0.6145427
0.98328364 7.785161 1.3932965
1.2255003 4.5359716 -0.04516489
-0.8878939 4.849184 -0.622393
-4.0937223 6.533083 -1.3500595
-4.8418245 5.66156 -0.74138975
0.13295299 9.341961 -0.3654052
-1.5922964 10.000099 1.0840678
-0.7760905 6.8918505 1.5050824
1.5367017 5.434619 -0.035182558
0.63802433 4.788332 -0.31584567
-1.2300966 6.645054 0.061755557
2.2437887 0.34847325 0.7490742
0.3220318 4.4223223 0.66402245
-1.3045065 1.5237386 1.2591462
-1.1727569 4.4048386 1.4064858
2.2312655 -3.9690433 1.3702831
-1.1790276 4.1014633 0.29929513
1.161912 2.640884 0.80772245
-4.667142 6.8640795 -0.8472456
-0.80976653 7.815197 1.0556443
1.4345179 5.8376226 0.9081199
0.8940264 5.6734686 -0.11174834
-0.6195507 3.7134027 0.04946488
-1.1320512 11.00177 0.5975208
-0.6198119 8.257919 1.2258763
1.5536637 4.344099 0.75526845
-0.70279825 5.5030766 1.180927
-0.6025064 2.5862293 0.51276433
-0.7222829 12.6998825 0.33872157
1.2418292 8.518084 1.2520292
-2.6094527 10.117163 0.35908902
-0.9409039 9.995995 0.15328106
0.9078758 2.868885 -0.47338098
0.9813204 3.9170995 1.387886
-2.1889153 1.605473 0.73322296
-0.5116172 4.696186 1.6861477
-0.51949704 7.2729654 1.6639323
-2.0755396 0.93811905 0.29196072
-0.5033239 6.5029697 0.93814707
-0.413733 4.5712748 -0.113858715
0.3167717 10.979637 0.20363691
-0.56197107 13.046137 0.24546131
1.9488647 8.884815 0.2884338
-0.46103358 4.899336 -0.72289145
-1.3758147 9.704353 1.201963
1.1281872 7.4238443 0.68096316
2.1038089 0.6755353 0.9060769
-3.0583339 8.848003 1.027463
-0.22798496 9.108255 0.43016678
0.76111925 9.8671665 1.3105786
-1.7608974 0.6731801 0.39453238
1.8005476 2.473329 0.7443738
1.4720075 2.2289104 0.5777385
0.8698292 2.6594858 -0.12986729
2.8935685 4.8596916 0.6584898
-1.2132885 4.7769814 0.9175887
-1.1518819 -0.20215678 1.0471718
0.88943076 1.9443305 0.71848047
-1.9352732 0.26106417 -0.078280985
-0.19383204 5.6059723 -0.32606572
-3.614924 6.396948 0.16812773
-1.4323027 8.2867775 -0.1157037
-1.7968185 1.9394093 0.48519552
0.91432726 1.7856634 0.12083934
2.142406 8.03623 1.4818311
1.5416038 2.2472053 -0.13165024
1.6999924 2.0617042 -0.42924148
-5.0880547 6.1745386 0.04039955
-0.41199136 8.973616 1.0745106
0.55769753 10.794594 0.80578053
2.734167 -4.6000633 0.6161696
-0.7129288 2.3433719 0.24754944
1.2846255 -0.76586795 0.8521731
-0.9928473 8.168228 0.4075014
-0.7149838 11.492168 -0.18354872
1.0281055 3.4166794 0.083033174
0.8964311 3.7441497 -0.62418175
-4.442029 6.386961 -1.2824633
1.491796 0.91037893 0.37582922
0.08724502 10.800409 0.84326446
0.6304841 4.3163366 0.3766861
1.3376988 9.366567 0.38350692
-1.8134387 0.59453726 1.3060796
-1.1381328 2.176468 0.3391056
-0.80548584 9.119139 -0.022651188
-2.3693633 -4.6005754 -0.2193875
-1.9857602 -4.6366434 1.6389856
-1.7665505 -0.26857013 1.0970454
-0.7151841 4.5024424 -0.7213601
-1.0571542 8.872971 -0.33341712
1.1164315 5.6022987 0.77188003
1.1378226 6.37726 1.2471814
0.8306297 6.1064386 -0.07526864
-2.5338917 -4.577303 -0.5622431
-1.7972639 9.554964 1.0480535
-2.5378122 10.267864 0.6937156
-1.2740638 3.4816294 0.72568476
-0.2316548 6.883395 -0.1824907
-0.51754713 7.667777 1.6348722
-5.4429874 5.9814553 0.13874115
-3.868291 6.9116516 -0.3929681
-4.1278515 6.826646 -0.0155034065
-1.423522 9.635307 0.8074499
0.57824624 6.6118155 0.24716169
-0.6104276 4.0315256 1.5270243
2.4791737 -4.255145 -0.106641605
1.003756 8.16227 -0.0939302
0.039992332 8.103205 -0.4148503
-0.25342286 5.072835 1.7485261
-1.2352867 1.2358589 -0.2756331
-1.9580026 -3.7103677 0.98566973
-1.6053584 0.73881125 0.72309506
-0.38526225 5.648099 0.99997723
-1.3297126 0.53114355 -0.123354495
0.91448927 6.5885553 1.3858478
1.2537487 8.330488 0.23531073
0.11491415 9.1104355 1.5045753
1.6708474 -0.089146346 0.12951401
2.1577797 0.35126215 0.3222469
0.7447425 6.9196043 0.5731455
-1.7605376 3.2930512 -0.22956479
-1.0484989 9.162376 0.29203546
0.69287705 7.366104 0.5276674
0.7631701 8.421728 -0.28664005
0.45723057 9.62854 1.4365413
0.5569736 4.801489 0.89119506
1.7780511 0.16532639 0.3696602
2.336083 -4.61129 0.49999017
0.5393779 8.444996 1.5146961
-1.123286 9.423943 1.3280921
-1.0826273 4.4878016 0.17692971
1.5942104 4.0608673 -0.35626042
0.971344 0.82981586 -0.12953448
1.6926022 9.529028 0.47643632
-4.1244354 6.169587 -1.371777
0.15246135 8.873859 1.1865313
-0.07370973 4.323101 0.6696353
-0.15306866 10.6461735 0.5532943
-0.4295017 12.44965 -0.6062443
-1.1760216 2.8717833 -0.49534208
-4.1006517 6.0383463 0.6305392
-2.0558152 9.634533 0.7378167
0.7761562 8.854908 0.7397567
2.417756 -4.5916796 -0.3780257
-0.69114566 13.415314 -0.4483713
-1.096571 2.3991246 -0.44847703
-1.5510764 7.8572826 0.33631194
-0.549175 9.859188 -0.3048663
1.0275428 5.947798 0.20919296
1.2809329 4.746377 -0.4344173
-1.0946736 7.1760654 -0.4198804
0.3575878 4.6428185 1.3081551
-0.5273384 13.459583 0.24889746
-2.7384052 8.827114 0.68304384
-0.11473878 7.6803637 0.58421516
-1.0196245 0.1926938 0.8660861
-0.0964268 9.43174 -0.04517518
-1.9166744 -0.5241308 0.8106282
-1.3817947 4.0679646 -0.4929815
3.0553994 -4.6078453 -0.57711387
-1.2542508 5.1602497 0.75679886
2.3160958 -4.5422077 1.1146605
-2.1835427 -2.8768096 0.93396544
-0.87232053 12.61565 0.7055489
2.6072865 -4.617593 0.9688066
-0.6312728 5.072033 1.6579893
-0.46969873 12.000162 -1.0401878
0.7202203 2.0974975 1.1215477
-0.765252 7.9480686 0.6328206
-4.569667 5.661811 -1.0211802
0.8546326 9.064369 1.4317415
-0.5654534 5.9138193 0.35450256
-0.79376197 5.423873 1.5564089
1.4767029 8.427916 1.0088625
-1.3040395 5.067442 0.022958573
1.0450361 7.52398 1.0287313
1.9182894 -1.0502248 0.5005051
-3.7680378 5.7928524 0.4861531
-4.2912416 5.3035507 -0.41949373
-2.2987208 9.684601 1.0081458
0.19731319 2.4795737 0.23162404
0.6310929 5.1822414 0.8895216
1.5065553 3.495387 0.016826846
1.7997227 4.367077 0.4392296
-0.88881695 4.7352085 1.5496254
0.2273131 5.2934675 1.4261577
-2.4617 9.402546 0.30877465
-1.5703653 8.999899 0.25395066
-0.3555156 7.543844 -0.47316223
0.5319371 4.4625807 0.98677635
2.1486287 -4.5921097 0.8324424
-3.7350636 6.722742 -1.2519999
-0.05182766 8.981192 0.7902895
-0.6077138 7.108593 -0.123925135
0.63817894 6.8721733 1.562551
1.0908798 10.003925 0.30522907
-0.4612189 2.5718112 0.94928443
-2.173759 -4.3183203 0.4898047
-1.2483971 7.6088743 0.105138674
2.5200076 -4.2205124 1.2459612
0.17854437 5.7604933 -0.33677334
-1.4335093 -0.083725795 0.07550381
-4.934264 6.014534 -0.57176757
-2.3761911 -4.241454 0.08190568
0.27134025 12.065983 -0.50451994
1.1528783 6.995592 0.6950036
-0.15251094 4.1544476 0.999735
1.5741968 1.8164682 -0.10165806
0.33855307 5.116638 0.24145147
-0.30517393 3.4289956 1.1835005
-1.3453641 0.5024673 0.41102266
2.2019434 1.537174 0.45718485
1.996124 9.0461445 1.3051267
-1.7332244 7.808957 0.85392034
-0.8165095 10.181646 1.2021527
2.8604789 -4.298912 0.019377802
-0.17409813 9.963739 -0.23376077
-1.4906108 0.920347 -0.29135704
-0.071273535 5.111829 0.72130144
2.869721 -4.545892 -0.8921367
-3.8420367 5.295104 -0.48522493
-0.56719697 10.274681 0.31153107
-0.8191284 7.675515 1.433037
-3.7395716 6.783498 -0.7704216
2.0466642 1.8075073 0.68899477
-1.629107 8.941288 0.66103995
-4.5805063 5.948283 -0.15697885
-5.0247793 6.3978004 -0.25976932
0.7615315 2.52626 1.2148762
-1.1574538 8.449553 0.04816243
0.5257466 4.1957426 1.267101
-0.5993645 11.6105385 -0.55025446
1.0841243 0.9498472 0.26016605
1.4873691 -1.0599706 1.082201
-0.21753004 12.558359 -0.93040645
-4.119871 6.7959003 -0.7072216
-0.566797 10.680197 0.47016633
-0.31047118 12.665409 0.20218748
-5.021804 6.356761 -0.7799103
0.38799578 7.8237476 -0.37315595
0.99209666 4.6425867 0.29743677
1.060838 1.87711 1.1433561
-0.8375884 0.8725418 0.22041914
2.275754 0.68195665 0.53170836
2.3942928 7.3128986 1.6737349
-1.975734 3.140162 0.13906091
1.2344229 2.8728309 -0.1865989
-1.663841 9.995214 0.30789858
1.6381266 -1.7377946 0.9917538
0.20404127 7.7413864 0.91120815
-0.8415009 10.802309 0.8844323
-0.17691085 3.2071548 0.91217756
-1.0700161 -0.48408955 0.6190089
1.4569545 6.8024664 0.4662614
-3.1007915 6.745677 -0.4080415
1.8044038 9.470871 0.8397318
0.29669684 13.240585 -0.44083822
1.4312472 5.3377485 1.0039496
-1.3423703 10.48089 0.53807473
-3.64324 8.683956 1.4789245
-1.7577097 4.982486 0.50556445
-0.89334726 7.085475 1.0536985
2.9794421 4.089551 0.58644927
-0.100003704 3.0734015 0.20117563
-0.11704008 4.709543 0.609709
0.86370754 8.380779 0.17775385
-3.4223528 5.9042587 -0.43834633
-1.8067658 -2.2158175 0.9523984
-0.66955376 12.726634 -0.029794771
-1.0879118 1.3913517 0.9912156
-3.959865 5.626459 -0.235738
-0.6124284 5.1249876 1.3138254
1.3557277 0.37815124 1.0916333
1.9379692 9.713705 0.24805906
2.6237497 -3.9217458 0.6034241
1.5344021 3.666593 0.39528006
-0.8228407 5.6514606 0.0575063
1.3816354 1.3106203 0.33662158
1.6062369 -0.5502535 0.7026322
-0.08944453 5.868806 1.0551922
1.6054378 6.0705357 0.5754068
1.5312655 8.906204 0.46687788
-1.428303 -0.14170143 1.3028347
0.7249725 2.1044903 0.36263633
0.4523753 4.7749844 -0.7244613
-0.5796294 6.7601604 0.56947935
-1.499697 0.44873297 1.4235125
1.7506175 -1.502301 0.64801466
0.693526 7.503991 1.1798222
-0.8596345 7.8091135 0.09660794
2.9897609 -4.6008587 0.22692573
-1.2731493 9.753155 0.17374474
-1.5931363 2.1738605 0.19967446
-0.13349938 10.510998 1.013598
0.6626233 1.8992584 -0.15944064
-1.2909739 5.5575037 0.6225771
-0.4002747 7.1605597 0.20310655
0.5375471 1.3871272 0.30115926
0.7252499 10.517302 0.5198482
-1.3282912 1.675981 0.78287065
0.96125555 2.0382524 -0.36651295
-0.83297896 6.4774904 -0.041516334
2.772766 -4.3783903 -0.42484862
0.22598279 4.0107946 1.4679618
-0.2816363 7.038415 0.56599295
-0.09925552 12.036758 -0.35592026
0.6887014 1.4869022 -0.06593999
-0.52510643 6.266303 -0.21335512
-1.5582778 1.1849089 0.087163284
0.49247146 12.886742 0.10866292
0.54408586 5.060239 1.30195
1.3006346 0.9851055 -0.36522377
0.56478727 10.290628 -0.062761456
-0.18065563 13.511036 0.3370195
-1.6372337 2.3944578 0.84619164
-1.3747444 1.8002205 0.38745332
0.7085504 9.3940525 0.041720703
-1.116324 6.4775105 0.781929
-3.772439 6.073552 -0.31973597
-5.0670347 6.9052343 0.7808154
0.46395737 5.6143312 1.3978834
-1.0331888 0.5575521 0.13931024
-3.459372 6.0904856 -1.2059274
-0.5379776 6.766285 0.1564182
0.9322432 4.1657476 -0.5910722
-0.4444945 7.8591995 1.2446198
1.082762 8.590776 -0.107593164
0.8028902 6.2916822 -0.40769362
1.1097391 4.6265287 1.420459
-1.1658273 4.4780464 0.5934768
0.8622601 3.1717043 0.44855326
0.14246461 5.776085 0.35087526
0.15362358 4.1069164 -0.33321482
0.378249 6.2893057 0.5257493
0.66469145 3.0993724 1.2678533
-1.1015902 3.3423476 1.3260767
-1.2209232 3.4262023 -0.16605571
1.1029749 7.8364563 0.8245686
0.02100911 3.7018871 0.4236461
-4.874527 6.550441 0.13725424
0.23399812 7.8396235 1.674849
0.5312036 5.5553617 -0.24835002
0.5176809 7.8616285 1.1250992
0.070149586 13.480484 -0.19740444
-3.0934806 6.2353125 0.08845617
1.9711976 -0.08874124 1.228452
-0.41503954 6.152502 1.7262368
-1.0082037 5.56291 0.90328205
-1.6226089 1.3301508 -0.2812851
-1.3548172 9.347689 0.12580088
1.7102315 8.786472 1.2081826
-4.0088825 8.568071 1.4770477
-0.8705715 11.045626 0.31147403
0.72982013 4.6172485 1.2813675
-1.951966 0.5351137 0.872738
-0.43270755 5.6271753 -0.0007558663
-1.065664 5.993531 0.7947626
2.3371048 -1.5024009 0.726838
-0.5787214 1.8668427 0.6667794
-0.18680254 6.966915 1.2374983
-0.5630164 5.228142 0.052777417
-4.2591543 6.928011 -0.37549633
-0.7201042 7.4385138 0.2652055
-1.1270738 2.5910516 1.2430015
-4.8555183 5.5531425 -0.07444461
-0.65679145 9.49198 0.6864326
0.117035136 10.353195 0.7114538
-1.7147796 4.606859 0.711985
-0.358879 7.108922 -0.49106455
-0.01816237 10.421753 0.2638294
-3.6251526 5.7481403 -0.124656945
-1.4357011 3.256 -0.4504705
-1.6798224 1.9631515 0.9135268
-2.1998816 -0.85445094 0.8759366
-0.98141634 1.0121696 1.0545347
0.16222203 9.320883 0.6855103
-0.5229937 10.748714 -0.21709394
0.50261164 7.7106247 -0.025232833
0.036347017 13.065039 -0.25822413
-2.0393748 2.9250798 0.43782526
-4.0540533 7.228489 -0.71172
-1.6785331 7.6460123 -0.029856313
-1.2798922 4.841525 -0.51804566
-0.55942297 12.358126 0.12802312
1.3790443 3.4794645 0.76561844
-1.8415589 2.5291395 -0.22051826
-0.83204913 3.8413405 0.365093
1.2915936 5.7661524 0.46617675
-1.1643372 9.881714 0.52514863
-1.4632154 8.439976 1.0058489
0.19271201 3.3136735 -0.46038127
-0.62518525 13.515734 -0.11370897
-0.9376608 5.780777 1.4357448
0.9753245 1.6328747 -0.30392623
-0.124717906 9.225998 1.136584
-0.9414948 4.736161 1.1719463
-1.8697004 7.6301365 0.58155334
1.1657438 8.236876 0.8250984
-1.1265087 6.1405315 1.2732782
-0.8795639 4.608472 -0.2615232
0.5243851 8.244772 1.1511598
0.0981213 12.909014 0.12930223
-0.3097607 4.9699707 -0.032298245
-1.1097672 9.922426 0.9093336
-1.2737296 6.3286343 0.49479973
0.9015802 9.672449 -0.22766727
1.5802133 3.3040228 -0.46921128
-1.7308826 8.254795 0.42264855
0.26198697 10.597885 0.029253483
0.6919291 1.068641 0.08725861
-1.3494539 1.1487789 1.1821647
2.3560338 8.340586 1.4339821
-0.24481481 9.575476 -0.3475086
1.0264487 7.189661 0.36536807
-0.09406195 7.614624 1.5260103
2.176373 -0.35078692 0.22815013
2.116345 -1.791039 0.5667306
1.5826621 3.0810146 -0.08975695
-2.850378 9.969025 0.69297254
-1.672776 9.717845 -0.018629106
-0.83934426 7.2773914 1.4414794
-0.7547598 3.8912401 1.1102445
-2.1205835 0.2626981 0.29858816
-0.119354665 12.28121 0.3844728
-0.1249353 9.771355 0.1433411
-5.2631187 6.248811 -0.4797811
-1.5049458 0.028626505 0.92054045
-0.31915176 6.693927 -0.5937959
-0.40659094 2.412519 -0.20224357
-1.9475787 0.17014405 1.0524824
0.13901332 7.5032196 -0.12385194
-0.803107 10.032764 0.5705826
-1.5990794 0.8430153 1.1000347
-4.158147 8.423744 1.1781361
1.1918755 7.0812387 1.0923309
-0.66917264 11.897423 0.48414624
0.744254 5.3771076 1.5867145
-0.40149617 2.8802543 0.3073411
-3.2660809 6.4650936 0.3140018
-0.27438045 2.4547358 0.2076486
2.1341982 1.5121467 0.121793374
0.47159284 1.7736952 0.17386776
2.2393723 8.741222 1.3491118
-0.053591527 4.842551 -0.77174544
1.7877352 2.1041045 0.8913387
-4.0228586 6.1852884 0.32044944
-4.761716 7.855564 0.92802644
-1.7914567 7.5116587 0.24641266
-0.761515 11.937538 -0.7888012
-0.9645704 10.676353 0.5418
-1.3529775 -0.5651728 1.2267156
2.5846114 6.522047 1.0406935
1.7175665 0.52405953 0.97694683
-0.38135833 7.412381 0.53632355
1.0418231 7.290634 -0.03346172
0.38681382 5.451394 1.7713001
0.53154194 8.162903 -0.04678818
0.101610556 4.884569 1.4183426
-2.0084429 0.6142031 0.08342719
-1.0732408 2.188438 1.233192
-2.092701 -1.1948514 0.69673693
-1.0716927 3.8085604 0.69355834
-0.35028476 8.046064 0.5860727
-0.52618873 8.568106 0.9205928
-1.6920531 10.6211815 0.7479558
-3.725287 6.4553843 -0.22152306
0.3698622 8.916723 0.76168895
2.095489 -3.8496118 0.7492616
0.7088374 3.8247557 1.1182652
0.4687658 6.3852835 -0.12056285
-1.9305999 3.5225134 0.048949417
-4.7794113 7.572336 1.2080388
-1.6987896 1.0866852 0.44575304
0.9100833 8.501032 0.56928146
0.9381244 5.7147503 1.4481034
1.2839229 -0.017639454 0.938496
-1.008815 3.038807 -0.10116196
-1.3494396 7.1523438 1.0107391
-1.9795752 10.377468 0.11415863
-4.459984 5.432126 -0.7368239
0.06285332 9.610514 1.0089667
-0.80111957 12.628769 -0.6734679
-1.5072167 0.7915659 0.11929762
-0.86635005 6.6999454 1.0319009
0.25570232 5.820031 1.7601616
1.0563498 7.366248 1.3494308
2.5147367 6.598551 1.429781
1.4335918 -0.19855931 0.4816404
-0.25769538 11.617596 -1.1320348
0.067426264 3.5872078 -0.22137538
-0.09757885 6.156892 0.3545221
0.37402868 7.1441135 0.5772493
1.2839303 5.2973614 0.6143892
-2.3428135 8.655657 0.5338017
-0.606814 13.052267 -0.6823535
-1.2846811 5.4937277 0.2545213
0.9610982 2.9732127 0.11722167
1.5532179 2.767233 0.98650396
-0.570302 7.5397263 -0.07794973
0.4674493 12.949739 -0.26215553
-0.2050972 8.421841 1.4808321
-1.4292631 3.3928485 1.1007612
1.2855716 9.828783 -0.08582586
2.0700555 -0.7287998 0.12571216
-0.9232074 6.8867235 -0.077252984
-0.6654184 11.380875 0.17558873
-2.1720948 9.392694 0.5194893
-2.897964 9.177561 1.2510214
0.38183522 7.417987 -0.46149695
0.8850404 7.973486 1.1086297
-0.24530819 7.563141 0.17502052
-0.6151931 4.898535 1.0111895
1.1024892 5.2718143 -0.028066892
-1.0017891 2.625039 0.5261022
-1.0143585 12.44031 0.08946274
-0.9948578 4.0768986 -0.6036664
1.3046575 3.11694 0.17183882
0.4685732 1.765717 0.5614915
0.6948497 7.6698856 0.8025539
-5.268834 6.6436224 0.55977607
2.2737837 -3.9325767 0.36856508
-1.7690897 7.224946 0.48202074
2.5863028 7.578743 1.6213224
-0.74703753 1.2658896 0.8131126
-2.4436889 -4.603318 1.2086926
1.5781131 6.5054684 0.7647462
-1.5394363 -0.8105109 0.84063756
-0.4637549 12.444958 0.5222193
0.90485966 2.8534188 1.0716636
-4.3678703 7.5917587 1.3289602
-2.0233107 9.013876 0.55473924
0.6480315 9.802362 0.1653125
-2.3208246 10.208445 0.110412344
0.0867316 9.499681 1.4062741
-0.91450155 8.478256 1.0098932
-2.5397897 -3.9225078 0.73777807
-1.3419554 6.773053 0.9302757
1.6183956 5.570427 0.68374
-0.04403361 10.840776 0.24975646
-0.7922944 3.4225178 -0.24001679
0.6056633 2.476428 0.49045157
-1.8566203 -1.6437657 1.4115396
-0.33684212 13.377167 -0.69016695
2.004418 10.122568 0.3293717
-0.9437717 5.732009 0.44557637
1.1716743 0.69327676 0.9877939
0.2586552 4.873308 0.6110852
-1.4208462 8.029558 1.0278292
-5.062001 7.237486 0.65611994
1.660147 0.9741672 0.04595658
-0.30957836 8.780083 0.23344171
0.42147487 2.4102163 1.0455031
-0.99477506 9.175787 1.0414419
0.14749265 3.9075499 0.03512609
-0.64759207 5.221431 -0.62972367
-1.9879506 9.921558 0.9673535
-0.21403146 8.260733 1.1510336
-0.7515675 4.2576523 -0.33087677
0.059182983 12.501789 0.12803492
2.797906 7.2027264 1.1318412
-2.1201282 -0.064664885 0.10566406
0.9143864 8.228186 1.4193301
0.636942 2.8383527 0.25880075
0.46678382 5.4966793 0.44710976
-0.51436734 3.0665002 1.0719366
-4.2332296 7.298812 -0.39888737
-0.4359975 5.9059553 1.3475425
0.7917987 6.5021963 0.5747951
-0.15752992 7.980359 0.22926965
-1.8687816 4.595294 0.31991428
2.2628756 7.78423 1.1292801
1.9408123 8.547152 1.0003059
1.3747628 3.786491 1.1921885
-0.24515411 11.788378 -0.656175
-1.7493489 9.875347 0.6935642
0.10785316 5.629285 0.72719634
1.2368698 1.5619621 -0.017763922
-0.31498927 2.894331 0.7053189
-1.014157 0.6012025 0.86291504
1.4708352 7.228986 0.5313034
-3.956893 5.795558 -0.89612424
-3.681651 6.02448 0.14055683
3.1290655 3.5854793 0.2285184
1.9861329 1.3626976 0.7013526
-0.46365243 3.6141715 0.44176382
-0.6754149 9.019424 -0.38009435
0.7151052 7.259757 1.5410807
-0.39353877 12.056292 0.30874133
-0.09135242 12.073687 0.04722538
0.7046646 5.8923454 1.1884294
-2.0832481 -1.3021865 1.3888838
-0.19762477 6.7439995 0.8591695
-0.13475454 8.216452 -0.0711644
-4.34379 5.663316 -0.13025299
-0.66034067 8.8661995 1.4928133
0.0041317013 5.820511 -0.010357411
-0.93550324 9.140287 0.6689968
-1.2392523 8.000315 0.10005823
-1.6049304 0.40316278 1.0390084
-1.7497017 4.567853 -0.07180585
0.04216204 8.740513 0.41714728
0.46829158 12.607237 -0.24422157
-3.7475004 5.4295435 -0.8710607
-0.7150383 5.3833838 -0.24806917
-1.7372568 1.2463617 1.2062609
-1.6606331 2.835989 0.320023
-3.5477986 9.010052 1.2959073
1.2696967 4.961034 1.2543833
0.36543626 10.322563 0.31547683
1.8114219 10.437584 0.4960962
-4.3787546 8.241589 1.4484057
-0.92194796 4.92144 0.7143527
0.9266392 10.059629 -0.088116676
-1.9150333 -1.5151527 0.7075497
1.3534048 6.5985622 0.08590643
1.0648637 10.753973 0.34993583
0.57163715 8.261515 0.39773327
1.3680961 3.3970265 1.1390312
1.6417286 3.1707063 0.9544811
-0.19173929 8.374199 0.74926865
-3.4027228 6.5175095 -1.1890926
-2.1107125 1.6467879 0.35807717
-2.8407354 -4.5393114 -0.7163893
-0.78831303 9.191474 1.4221342
-2.0265875 -2.7791648 1.289304
0.99444747 10.160587 1.1597388
-1.9875071 3.8412576 0.3131678
-0.5888219 12.713396 0.92777526
1.0865395 0.3039053 0.7524792
-2.0038214 -4.0395555 0.72951996
1.5641944 4.7978973 -0.19583887
-5.0202036 7.5146246 0.8936764
-2.0147681 1.2764044 0.18257302
-1.383832 3.1445088 0.6661
0.6826054 4.6760807 1.6424968
-0.69410384 3.3828292 1.2684374
-2.1877694 -0.13868845 0.9605881
-0.49889505 8.621166 1.2764113
2.278658 8.887285 1.0187547
1.0564725 5.099184 -0.4792406
-1.305119 6.7282076 0.5070437
-0.25741202 13.622499 -0.002390591
1.1932673 4.2322235 0.8396566
0.12483549 5.5509233 -0.6738479
-1.452193 2.755857 0.66750765
1.2262819 4.960582 0.8544396
1.5224419 10.190945 0.39354837
-0.596611 5.4820347 0.38113868
0.889158 8.826765 1.1001139
-1.8118675 8.464453 0.023280967
-1.160682 8.427267 0.68650603
-0.39149177 2.1460314 0.42034864
-1.1269453 5.4516697 -0.12970796
0.4179607 2.9050431 0.5351434
-0.57216346 6.3505983 0.2756803
1.4758523 9.232641 0.72908545
0.3305388 3.621036 1.4397683
0.44295216 10.008131 0.5265877
0.014569087 7.3455334 0.7393954
-0.13803422 7.971485 0.93393373
-1.9048309 -0.95756435 1.4906473
-1.0044796 0.20418635 0.45038116
-0.05198244 11.308466 -0.36484414
-0.8832028 3.4803705 0.5541824
2.8581805 4.4457397 0.6114452
-4.3114176 6.4648075 0.16568935
0.24535024 9.952656 0.875118
-1.3716242 5.214287 -0.40276134
1.4417398 9.803383 0.32109225
0.54183304 6.071575 0.8804351
0.77975905 5.469285 1.1568213
-1.0688696 10.281672 0.7616563
1.3870459 -0.77657926 0.07273328
-2.132205 -4.594966 0.8566294
-0.4433396 12.865467 0.5835477
-0.91986203 6.546983 -0.4787253
0.203675 5.1107664 -0.74169004
0.75453544 1.066395 0.51062334
0.084897235 8.52109 -0.46185273
-1.4134548 2.0642142 -0.38256145
1.3854766 4.9420023 0.47720814
0.16696072 6.521183 0.2367942
0.2567463 9.043236 0.3773288
0.4870038 5.959955 -0.19735122
2.1304584 1.9137857 0.27332366
-4.7578487 5.369129 -0.45216608
1.9499929 1.0529473 0.95944643
2.718307 4.378605 0.1415611
0.17689314 4.2478743 1.1015868
0.31734306 9.202695 -0.007938486
1.0177841 -0.7352282 0.40314752
0.37073034 13.233116 -0.031482965
2.066628 -4.1530895 1.057472
-0.7245965 2.3586245 1.1860116
0.7355598 7.079176 1.1894076
2.7792883 5.633484 1.0266731
-0.49057937 2.2416182 0.7975718
-0.87122583 2.462099 0.8847803
1.0021629 4.8501234 -0.14232415
-0.9281653 8.5886 1.3890448
1.0513711 9.623285 0.17091274
-0.17100337 8.0113735 1.4916196
-3.3805766 6.072502 0.403781
0.13721266 12.62129 0.7969279
-0.08400574 8.624508 -0.06528109
1.1438663 3.8124185 0.5618206
1.3378837 5.7436743 -0.011402566
-1.7512097 0.29889846 0.6105144
-1.061944 7.360818 0.44475752
0.6072499 4.427044 -0.62019634
-0.5765537 10.089041 0.8823384
-1.7505195 2.4129782 0.44747388
1.0840178 2.2641654 1.1780188
1.2631366 0.21470529 -0.08097251
2.8624296 5.9055643 0.8074236
-2.1966195 -0.21007788 0.5007651
-2.12684 2.4755673 0.47590208
1.3955445 1.4612005 0.72825265
-1.0292284 4.0523643 1.4617708
0.7456012 3.6787543 0.053751096
-0.3877018 3.783186 -0.68504167
-0.0039723497 13.434265 -0.5552519
-0.56585 3.0531182 -0.10156907
1.8083885 -1.0083702 1.3080478
-4.592367 7.9129276 1.3245711
-2.082654 -2.0646367 1.3377674
-1.4151113 6.019719 -0.21312225
0.119161025 3.7797532 -0.5805198
1.2948564 8.745958 0.19123831
-1.3982542 4.7866716 0.5934899
2.102014 -1.3855348 0.5071306
1.2787731 6.67264 1.0805681
-1.5931945 3.9470582 0.27511144
-1.8791318 9.081274 0.9797262
1.7059267 9.977701 0.043605104
-0.5342269 8.116781 0.91399026
0.24512315 9.2424965 1.067944
-4.4602003 6.7553644 -1.1769576
0.71116567 3.510604 1.4090226
-1.3358426 9.549067 -0.18470958
2.1634092 -2.2253647 0.646206
0.574479 2.48698 0.09413007
-4.352393 6.02923 0.14389214
-0.014573232 4.6588364 -0.051753685
-1.2275269 10.141626 1.1932194
0.13603577 7.6868553 0.2361182
0.46329987 12.514244 0.14348456
0.49293005 7.2646713 -0.10914166
1.8146186 4.0359774 0.72083044
-4.3414726 6.576627 -0.92047954
1.3366039 2.2892451 0.21143618
-0.9140998 12.967785 0.64936507
-1.4432364 10.095878 0.7047572
-4.009322 5.8317766 0.090314955
-1.4194853 2.2798362 1.1467447
-1.0101407 3.0867133 0.55482554
-0.42161 11.417786 0.4412263
1.3765657 6.236289 0.94499934
-0.31274813 13.148346 -0.4057284
0.88392234 9.254076 -0.28119087
1.0424526 1.5831485 0.90873826
1.0127146 5.0810766 0.3305915
-1.3821721 1.9085419 1.1899071
-0.5771438 3.483769 0.88035476
1.0118284 4.6117 1.0141873
0.8010509 1.6404197 0.47267687
-1.7802441 3.121129 0.6278291
0.8487526 5.3596535 0.58774984
0.9939873 10.718626 0.73254645
-4.573515 7.321476 1.1311805
-2.1776 2.0505843 0.45902383
-0.7816731 4.545827 0.8376088
-1.0931835 7.7852564 0.42979014
1.0556068 6.8337593 -0.09235388
-1.4941888 4.489623 -0.40349054
0.52330446 9.513979 -0.31222236
1.3745921 7.698764 1.121613
1.686327 0.5759084 0.28204536
-0.41469544 5.432108 1.7389474
-1.8493509 -0.8827479 0.5930908
0.17123154 4.5337048 0.33912623
0.58817685 8.580164 0.024016988
0.28228724 8.80164 0.0067674816
0.38506722 7.2167597 1.3307898
-0.35670036 6.0341587 0.060661733
-0.5253506 9.579794 0.014154589
1.4764979 7.6164265 0.7061144
0.5943638 2.7060647 0.8635504
0.4376616 5.1451025 -0.20205128
-0.46885478 8.844006 -0.091407716
-1.230525 2.6935606 -0.14925373
1.1715016 6.564846 0.688483
-0.66392696 5.683923 0.7302407
-1.0470607 5.9045067 -0.31090146
0.28385335 7.4389143 1.6940815
0.48106098 9.265198 1.4664788
1.2848165 8.102312 1.2012365
0.8034241 9.844152 0.5591434
-0.19814801 12.166512 -0.7648622
1.6469665 0.362042 -0.35339653
-1.067498 8.463661 -0.3255422
0.29978436 9.598644 0.015296704
-4.364398 6.318116 -0.23213957
-1.9636422 9.724564 0.37710625
-0.40592945 9.906344 0.5191184
-0.6956302 7.8002796 -0.33831054
0.83493733 8.817078 -0.32004756
-0.23538646 12.418621 -0.17032164
-0.1700458 4.897213 1.0429416
0.028895121 7.315771 1.2087879
-0.29391903 4.4974375 -0.7580682
-1.9779413 -4.5976725 1.2514083
-2.0748997 9.528461 0.08561714
-0.1791077 13.148548 0.80617213
-0.6205536 2.6663294 0.008618474
-1.152426 4.2642107 -0.2016572
-1.2020283 10.751202 0.22218803
-3.7718406 5.70767 -0.55902827
-1.6269541 3.680779 -0.34887165
-2.4410915 9.122377 0.65674925
1.4843903 9.715071 0.79944277
-0.7948097 7.0382757 0.3080125
-1.3586454 2.4948492 0.3615455
0.60281 3.2624197 0.17149448
0.23568183 2.7458153 0.8623804
0.7884599 6.1284485 0.58804655
-0.87487555 4.07716 0.031220691
-1.2390673 8.854214 0.49430442
-0.9082732 12.977642 -0.43234992
-1.2665493 0.9028944 0.42813325
-1.0027068 5.0226088 -0.2089332
1.7181947 4.605098 0.08790459
-1.5550947 0.23030582 -0.1991677
-4.3452024 6.366191 0.57607985
1.4482191 6.399321 0.4097219
-0.32049453 4.8574686 1.3970242
0.57799447 1.4069474 0.6936083
0.12289481 3.4534464 1.1260321
-1.0472641 7.618311 -0.26490748
0.5013007 10.308155 0.76836884
-3.0415425 6.0838804 -0.6178807
0.26561636 5.504073 0.031686634
0.6772816 10.925179 0.45372406
1.2830777 2.6424098 -0.5061425
2.094882 -0.021868933 0.081064224
-0.87833774 0.92718995 0.61828494
-1.5819008 2.8751912 -0.39023405
1.7709384 -0.75316477 -0.11434452
-3.4711514 9.072678 0.9557301
-0.8485135 12.256397 -0.56939113
-1.0096202 8.132387 0.90919006
0.5826845 8.027657 1.5148461
-0.8143774 2.6499043 -0.35372412
-0.48139542 1.7864015 0.27416843
-4.4808235 8.149954 1.055299
-2.1531134 0.14953738 0.664536
-3.0006914 6.3558464 -0.2772119
0.11500771 11.930437 0.3961444
0.83682 9.483955 1.3861825
2.8607025 5.5362263 0.6923301
-0.43956286 7.6842833 0.8465178
0.6301203 5.8248024 1.6783452
-0.9701135 13.228779 -0.16787505
0.014866548 7.2707796 0.30386358
-0.91164017 3.002575 1.2692025
0.26275265 2.5354466 -0.15100566
1.9097464 1.5058479 -0.18295804
-0.3318435 5.2661676 -0.33964437
-1.4470468 7.8426065 -0.2112804
-1.7502098 -1.9467528 1.2252276
-3.8711085 5.8840094 -1.3015668
1.8343458 9.266439 0.18410984
-0.1909566 5.7891703 -0.68672407
-4.00424 6.257615 -0.05013981
0.7712227 3.9472766 0.37224203
1.353456 5.3586683 0.2646368
2.1417017 9.680086 0.8831607
1.8719068 -2.1009426 1.1402681
0.3142352 7.0610533 1.7249672
0.48718995 8.870693 1.5022278
1.5815783 2.9124746 -0.46925527
2.229744 -3.0663986 0.76371276
-1.7214468 1.5501475 0.28391182
-4.8039684 6.0304136 -0.922274
-1.1374798 7.4155416 1.2676086
-1.246336 0.21890572 1.1811364
-0.04782515 12.284258 0.7774941
-3.576036 6.0373535 -0.75657535
1.5885355 9.553499 0.037340675
-1.0695595 7.3723507 0.8484361
-0.3691607 11.704052 0.1495631
-1.2063413 0.2122333 0.1007909
-3.8249903 6.4138765 -0.5861348
2.9164653 6.475462 1.2295468
1.3208725 1.8161337 -0.42490506
-3.4004207 8.618271 1.2347927
-1.4902112 8.622988 0.23796195
0.27067012 2.449277 0.6449846
0.6192088 6.310131 1.2141097
-0.86708486 3.7042732 1.4489496
0.15939438 8.453472 1.2610037
-0.9952096 1.7662508 0.54924405
2.0829735 0.7318661 0.16426015
1.0285695 6.9305677 1.3670506
2.3737774 8.483387 1.0853622
-1.4739597 9.291008 1.1297324
0.6513313 10.66213 0.15624774
-1.3561375 7.1392784 0.60879755
-0.816434 8.743034 0.67222416
-1.602138 3.2191217 0.27271533
-1.207104 6.996789 0.23710245
2.6267953 -4.0461884 0.20975259
0.4305998 7.011985 -0.48420233
2.2607179 -1.0589526 0.591493
-2.6761374 -4.2629957 0.648232
-0.33983743 8.719234 0.6226872
-0.7254126 2.8667693 0.7820313
-1.936621 -4.192192 1.1289935
-2.234363 8.830458 0.8514558
-0.72498846 2.7157416 1.2170317
2.1357841 -3.188593 1.1141751
0.33991474 3.5859942 0.06613755
0.92713726 2.4362998 -0.45741165
1.7030058 1.3493598 1.0255387
0.44780815 9.402775 0.35722554
-0.22605416 4.442341 0.2416195
-1.6005802 4.982299 0.9066279
-1.2632942 0.8863745 0.81327784
2.7288961 -4.6401186 -0.17636368
-0.19164243 3.3279266 0.5288522
0.45373547 3.788014 -0.30451775
-3.658988 7.1592836 0.053106856
-1.6784694 -0.3686391 1.4744525
0.19224715 8.41325 0.18581283
-1.1004543 4.8937035 0.33152205
0.33948368 12.179609 0.18756887
-3.244698 9.311022 1.1741521
1.0188057 1.2972021 0.60677063
1.4225781 0.57500756 0.6602942
0.7919334 10.500744 1.0055554
2.1656227 -0.010415923 0.48394907
-4.4805765 5.946621 0.48158094
-0.47892767 4.0893555 0.34352398
2.0806427 2.290975 0.18620786
-1.8403468 10.286135 0.9077312
0.29332566 6.0891514 0.15764064
0.84261775 5.487545 -0.5309489
0.90684557 4.8898897 0.6695199
-1.0762758 12.700029 0.38468564
0.8876338 6.7493973 0.955104
-0.37108958 9.207119 1.428309
-3.840228 5.481845 0.22293869
-0.8153926 4.251878 0.44548947
1.679035 -1.4055827 1.2271023
0.18678412 6.6476173 0.9948262
1.5069199 3.8898106 0.025237998
-1.5436628 9.636614 0.41903102
-4.097807 5.3633814 -0.75824594
-0.61168885 12.390564 -0.26776922
-1.7135687 0.5934336 -0.21796712
-0.79681504 8.876953 1.0776992
0.19516131 3.4933558 0.7406012
0.18480536 8.22407 0.936417
-4.494412 6.6602345 -0.5318681
0.029988378 7.2782917 -0.49954253
0.43406218 3.6664968 0.38642246
-0.9904238 7.3056784 -0.009750338
1.8190205 9.883066 1.0327389
0.39586347 7.363125 0.23468348
-0.47849053 12.06662 -0.5252044
-1.1062353 2.8206806 0.88456607
-4.2162676 5.435463 0.15201643
-3.096145 6.658828 0.0004166593
0.9215479 4.686798 -0.60162437
1.8426092 -0.82655346 0.8972378
-1.0227973 3.6598082 0.07257268
-1.0340426 5.237754 -0.5139706
-4.62173 5.6938133 -0.42748487
-0.26602483 3.9501061 0.619287
-0.864004 13.347832 0.15801406
0.6782586 9.063738 0.40060836
-1.7970653 -0.46970487 0.46227866
0.9675498 5.903783 0.8938018
-3.4753485 5.432662 -0.47309458
0.9404421 -0.31078416 0.34568322
1.147577 8.987995 -0.125599
-1.2518089 3.6964893 0.3473832
-0.07583134 12.685583 0.5067967
-3.4091606 6.150875 -0.12423895
-1.0464976 12.858206 -0.034278557
0.23370996 11.920179 -0.11534527
-1.1022232 -0.1304267 0.69407153
0.7947564 5.224827 -0.23685357
-2.3133097 -3.8527532 1.096058
0.85174346 4.0228443 0.72405744
1.0936532 5.3053465 1.351244
1.4299645 10.045443 1.0969427
-1.3199115 2.2814212 -0.05993195
-1.8943334 1.5084875 -0.06725292
2.3042445 -1.6304564 1.1020324
0.8502519 0.3492291 0.404405
0.18207073 11.870845 -0.765995
2.380661 -3.6362276 0.6160972
1.5769129 -0.05395063 -0.26287317
-0.34867114 7.970557 -0.4830013
1.8548734 -0.22703859 0.5149934
-1.0213954 1.965754 -0.38529485
0.23344561 6.454282 1.4084122
-1.3377688 5.621545 -0.3409794
-1.0478699 9.284105 -0.2732845
-0.64115286 1.5050576 0.068222806
-4.306571 7.056675 -0.9588115
0.95214033 1.2280929 -0.22494814
1.653151 5.060298 0.08269805
-1.1588271 1.8918295 0.0038656981
0.28523642 4.694543 1.7433567
2.8364782 4.695792 0.35881725
2.8898635 5.149746 0.5126504
2.5991287 6.0254345 1.0439501
0.31610942 4.1746464 -0.6858953
1.1921384 5.531637 -0.3391832
-0.8192055 10.727078 0.088888034
1.2432504 3.3033586 -0.2340996
-0.5691223 6.4312468 -0.58151853
-3.557777 6.436181 -0.87597203
-0.46289694 2.0993695 0.004003246
-1.3014503 5.9291334 0.46415085
1.8653562 0.7206913 -0.1821405
1.4350839 2.006837 1.1030021
-0.6244099 8.433626 1.568855
-1.0143361 5.083477 1.4418771
-1.2344427 2.4166365 0.79495883
-1.6915376 7.172144 0.038095117
-1.5720241 4.8906956 -0.23322621
0.89368427 2.2169714 0.022270713
-2.073948 8.411011 0.7060939
1.2804801 3.0077329 1.0351374
2.621202 -4.593335 0.23182213
-0.63892794 9.416101 -0.32194823
0.44377768 9.63142 0.71475446
2.0513086 0.28155655 1.1031995
1.9715025 8.521332 1.4030957
-1.5745649 6.483053 0.2862442
-0.29197258 11.354986 -0.009500641
-3.1624713 5.704198 -0.5456085
-3.835381 8.776417 1.1383383
-0.8296691 1.6532958 0.8831532
-0.18100366 6.463706 -0.3290931
-0.7942158 4.664382 0.4520126
0.03495276 13.097563 -0.7250012
-1.4771228 -0.38820368 0.7900212
-3.216453 5.875332 0.11102
-1.0466971 9.5166645 0.93777275
-0.8146348 1.9351068 0.24088848
-1.109307 0.8717376 -0.12211904
-4.014328 6.054099 -0.6344023
-1.33476 0.40271837 0.76785207
2.5053825 7.9411526 1.4971783
1.7214568 -0.78637755 0.34339297
0.83691394 6.1425886 1.4892149
-0.28948826 11.379564 -0.6397822
-0.59861636 5.827609 -0.28006786
-1.9350379 7.9165335 0.22901592
-0.782532 4.837943 0.06248518
-1.3759627 6.2175837 0.9077513
1.4433281 7.313657 0.9965955
-2.1106944 1.2622495 1.0164227
-3.235602 5.9048786 -0.9241631
-0.61690915 13.111372 -0.14460716
-3.564866 6.522444 0.52378404
1.2166419 -0.47384346 0.15735334
1.2065117 5.631778 1.1640468
0.8728696 3.1507673 -0.20367685
-1.8588133 8.671659 0.45240492
-3.7498746 8.440002 1.0587482
0.22797859 3.2824063 0.35718894
-1.7525451 9.360199 0.7171906
1.0145466 9.244289 0.6545698
0.44830567 6.581293 -0.5372473
1.2229085 10.402033 0.9353075
-1.0966144 -0.15257522 0.32396013
-2.2688775 -4.6039667 0.16786683
-0.91559374 6.5204773 1.413543
1.5961802 2.6483045 -0.08226402
-0.49131405 4.61724 -0.44785202
1.5770724 0.7660607 -0.38859767
0.2428272 11.012409 0.5714494
1.6458626 1.6277599 -0.40889144
1.5053959 -1.3852749 0.89385414
2.304411 -4.295108 0.26322925
1.886544 0.0696774 -0.2059905
0.67348814 4.516858 0.0155373495
-3.4816098 6.9089518 -1.0028319
-0.49218267 7.9861536 -0.05630233
0.1997799 8.240917 1.6268556
-0.38563687 3.8490276 1.0252004
-0.9212488 2.2634392 -0.06456542
1.7756104 0.7998574 0.69645023
0.6423938 7.646497 1.5375416
1.7873688 4.842103 0.3926934
1.4693685 2.382738 0.97464204
-0.21388954 7.308486 -0.13805163
-4.4960594 6.0340986 -0.54059196
-2.7178102 -4.2251244 0.27674907
1.8120751 2.8924308 0.70466626
-2.0539331 -4.2669964 1.5789914
-3.2223816 6.6887703 -0.8422048
-1.1331894 -0.6683605 0.91821635
-0.80694544 3.3325815 0.1816814
-1.413728 -0.3851229 0.3347466
0.55221045 6.6945753 1.2245901
-1.7977197 4.983404 0.1128234
-4.6742563 6.297578 -0.010035968
0.94902754 2.5561824 0.23144725
-1.2061262 4.399929 0.9847388
-0.17194507 4.916003 -0.4091369
-0.77682877 11.872955 -0.3701201
1.6281466 3.270831 0.33826554
-1.4001923 7.4373217 -0.27929795
-0.72328496 1.2152116 0.33707422
-0.94915116 5.258441 0.15609393
-0.9894732 6.9197664 0.68120265
2.6572695 7.6044064 1.2433367
-0.18417639 5.2870884 -0.7365705
0.028787075 9.376541 0.30277592
-4.172778 5.689643 0.43944
-0.563048 12.74884 -0.9070959
-1.3593627 1.5216312 0.020982694
-1.0043664 2.5991592 0.1237268
-0.4798544 5.5778675 -0.62658584
-5.351988 5.904565 -0.27981663
2.3056045 -2.8124437 1.0497153
-1.5354645 4.5825577 1.0849307
-1.9820223 1.8900726 0.06386666
-0.6559558 12.321772 -0.9467337
-0.58573365 5.776931 1.6629353
-0.9456798 9.5137825 0.0895572
-0.26994765 5.8778505 0.66032076
-0.08734052 6.8833904 0.1728243
-1.3274496 9.192879 0.82298064
-1.4800463 2.4855213 -0.4120589
1.9026556 -2.3920608 0.8838744
2.0957828 -2.4659805 1.1826556
-4.9345617 5.9763412 -0.22139499
0.8661636 3.9517598 -0.23526964
-0.92680323 6.154907 0.3936733
0.7807267 7.1116905 -0.26723993
-0.9342747 9.710735 -0.23074739
-0.5503174 9.890051 1.2810099
0.5424664 4.018387 0.054523207
-0.8254107 6.168929 -0.49294323
1.0248995 5.268388 0.93957067
0.7327291 10.184788 0.2958402
0.7229645 7.027299 0.1660398
0.931986 0.06539257 0.22199741
-3.661704 7.1805334 -0.7015375
1.2184887 3.7178216 -0.21709839
-1.047056 8.051512 -0.23825401
0.5991206 2.2902613 -0.2675746
-0.7234205 11.082989 -0.08455397
-1.4164598 5.4266806 1.0085344
-0.68767834 8.21982 -0.39304066
0.14540634 9.7708645 -0.28944105
-2.1395698 -0.41080946 0.16235375
-0.09621821 4.2387676 -0.07021198
-4.480853 7.157449 -0.14777792
1.6527433 -0.14073509 0.86284196
1.9684389 0.38180673 -0.008395349
-0.039359383 3.7788663 1.2235148
2.230434 0.98299515 0.7173785
2.236895 1.1494272 0.36427093
1.3471408 10.212727 0.021372799
-0.21998885 5.6777544 0.32957137
-0.6773381 8.614817 -0.41882128
-0.66717803 3.8371615 0.7157128
-0.40425307 3.130427 -0.5242541
-1.2213056 6.5100784 1.1694372
2.5227656 6.920869 1.1652834
-0.89885306 12.32279 0.4819278
-0.7889099 13.289339 0.55439997
-0.11794527 4.114767 -0.70529175
0.55145454 2.667276 -0.37955755
1.1643829 2.1705122 0.8231566
1.3896668 5.137949 -0.26167178
3.098864 -4.5929966 -0.18526766
-0.45760435 3.7241101 1.3802152
-0.99887633 3.5924168 1.0202119
1.2320693 4.232813 1.2774384
-0.7467824 9.712904 0.3754652
0.31964272 6.937711 0.21481416
0.48912728 8.684269 0.40922838
-1.2708414 3.7329588 1.3423066
-0.75648165 2.0127487 1.0108109
0.4026487 7.3712664 0.9388598
0.8491827 9.587595 0.91261494
0.6159332 5.632806 0.82805336
-0.70402753 2.2185726 -0.3511479
-0.72047734 9.550438 1.3676851
1.5473111 4.927347 0.9765501
0.105357766 6.466071 -0.6484668
1.5912352 9.203447 1.1600411
1.065778 3.572651 1.295357
-4.558855 5.591819 0.20705745
-2.0175014 -0.74316776 0.14341846
-2.20744 -1.6903131 1.2301638
-0.19413164 6.485903 1.6430688
0.79094017 6.699731 -0.39976448
1.9472709 3.1175957 0.04376857
-1.818459 3.8216095 0.6869756
0.8723451 8.41954 1.0415118
-1.4389389 10.400028 0.98810935
-2.1153932 -3.4902096 1.2379348
2.3323822 -1.9335082 0.81026006
-2.9908605 -4.609847 -0.3652417
0.8762448 4.278481 1.4920013
-1.8676431 2.7117505 0.72422874
2.074133 2.2292018 0.6078019
-0.06041169 9.682022 0.62991476
0.53435016 6.488244 0.866547
0.8557261 8.642481 1.4323885
-1.877985 4.219572 0.12974942
-1.1842332 8.802431 0.8716084
0.5626966 3.922799 -0.6756736
1.5831704 4.423135 -0.25529897
-0.68972313 6.072977 0.7044016
0.5017433 9.098747 -0.36362094
-0.43256843 3.3015041 0.17803809
1.8867424 0.4746151 0.5882375
1.4427013 1.8189971 0.2768457
-3.8635345 7.0676937 -1.0154357
-0.46229237 4.4657946 0.5417721
0.24437553 10.002104 0.11402857
1.783808 4.1908817 0.015408419
1.0081286 7.71992 -0.08545068
1.3477337 1.3783221 -0.3953184
0.024635455 11.657341 0.069056526
-4.7156677 6.915004 0.05113768
-1.7448556 10.302174 0.4974711
0.52251005 9.924008 -0.2087234
2.2218704 9.273544 0.95362234
2.1835103 -0.062119007 0.9065144
1.5888941 1.4030201 -0.004100196
2.4868922 8.059776 1.1387963
-1.9675834 8.014212 0.62698877
-0.2715922 10.996254 -0.031162808
-0.095088854 9.88937 1.26637
-1.1919575 8.271349 1.2642956
-0.09603086 6.1364517 1.35814
-2.7270517 9.7256565 0.3854016
1.1704106 2.8755603 0.46225643
1.3934534 4.2530146 0.121194676
1.2501664 1.2124019 0.9632343
-3.711296 6.8106384 -0.043756828
0.21500668 5.0262833 1.0505388
-0.14887461 3.1303082 -0.23353976
-3.8579984 7.2950163 -0.33493328
-0.08409962 3.4739203 0.12044214
-0.23854122 13.234812 0.0003762846
-1.1234303 4.4652643 -0.5951159
2.3268533 -1.1915061 0.9780997
-0.7630924 9.762348 0.92112994
-4.563451 6.6823006 0.37114847
-2.2830734 -4.2663956 0.91728973
-0.5764383 6.524313 1.680167
-1.8680115 -1.0375159 1.0599315
1.5832801 3.6753016 -0.40610665
-1.7056913 -1.7705557 0.91723657
2.0963688 -3.4356565 0.7740718
-2.6112118 9.422974 1.1014919
1.2208982 1.9914136 -0.05905748
0.09918958 7.036481 0.9447876
1.6927576 5.1245747 0.692556
-2.9943423 9.615335 0.6528894
-0.47540492 4.121748 -0.043914195
2.6962552 -4.178563 0.8939947
1.1016645 4.24689 0.44260228
-0.108197525 7.642399 1.0955615
-1.6241174 3.05799 0.99239707
2.0525837 2.6251612 0.4734891
1.5360112 4.08819 1.0496292
0.86872923 4.2278986 1.0797882
0.12396991 4.631816 0.9449111
-4.6846714 6.2810564 0.3804198
2.9398456 4.2732887 0.27894348
0.8155227 4.4623356 0.69059014
-2.2027235 -0.4972164 1.1627357
-2.1356506 0.5848727 0.4826402
0.062365383 5.3509483 0.39270616
-0.41922003 6.8873367 1.6790481
2.3952866 7.3206253 1.3091378
2.5939202 -4.611682 -0.70460093
-0.6156231 4.9596415 -0.3024302
-0.34526032 9.518681 0.38657755
-1.6148698 -0.7531929 0.231536
-0.11268897 4.6939983 1.7341568
-3.2042532 8.941214 1.3603978
1.5847745 0.31884784 0.025908522
-2.6505013 -4.603982 0.09635879
-2.592198 -4.1894894 1.0768092
-3.3867755 6.3231697 -0.5140388
-1.5353262 3.5433755 0.055858776
-0.8955134 8.103127 1.3849816
-0.6680732 12.298367 0.7952125
-1.3549142 3.8973684 -0.073979124
1.8218191 1.2898037 0.30039173
-3.7087731 6.169469 0.5827565
-2.97515 9.615579 1.0202794
0.070871145 3.061153 0.6357503
-4.1224318 8.025103 1.225059
-0.15198481 13.063438 0.3560927
-0.757633 10.405828 -0.065466926
1.9735854 1.9335322 -0.12738827
1.1690993 5.996457 -0.24366072
-1.2399819 4.6812344 -0.121540904
-1.4000139 7.583829 1.0095961
-1.7929921 9.319548 0.32972562
0.68092954 5.3551817 0.1348795
-4.7548285 6.487015 -1.0376039
0.50808966 8.657906 1.1264455
0.86765707 3.3045444 -0.58720434
-1.0025377 8.587318 0.3460508
0.16130862 12.991701 0.6864164
1.2295923 7.537962 0.27988684
-0.011614196 5.4197226 1.0602202
0.28165233 7.616539 1.3150136
-0.015955284 4.9158716 0.29444557
-1.3409417 5.0800257 1.1874375
-0.78676367 5.887081 1.1020617
0.9714868 0.69564867 0.60291135
2.0377755 8.199469 1.2016308
0.3342269 4.5004454 -0.31531304
0.9825487 3.2527514 1.1648362
1.7269471 2.1026754 0.14640447
-0.95021784 5.1660433 1.0461981
0.17034239 12.25071 -0.9013375
0.057865947 8.022102 0.5698527
1.9935422 3.0480008 0.4108882
-1.1465132 2.0240164 0.84754884
0.523669 3.109273 -0.50658906
0.0484396 5.709322 1.3992498
-0.3043365 11.675422 -0.25565612
2.8761249 6.0117493 1.1817753
1.1402698 6.0142326 1.2213852
0.3997724 2.8155189 1.2170978
-0.7025243 8.91004 0.320534
-0.33644706 10.207912 1.1757934
-1.395205 9.272871 0.4956823
-4.2183332 6.182909 -0.9821243
-0.15972334 8.664486 1.0644832
-1.2789855 10.747021 0.8477864
-0.9807193 5.3233023 0.5393815
0.88602126 9.2399235 1.0651431
-0.9499036 10.371485 0.3326952
-0.42098618 4.781123 0.27666122
1.3156626 2.6798744 0.16759577
-1.5580833 4.2264585 0.83909893
-0.13061064 6.5777645 1.2629664
-4.9017935 6.6612215 -0.6203228
-1.3481901 -0.7283 0.5136064
1.6205263 5.748152 0.29662687
-4.1871414 6.769435 0.48508877
1.6614025 0.16061631 1.1720076
1.1839399 2.6163445 1.16559
0.17500782 8.668283 1.5881026
2.2013912 8.162678 0.88922954
-1.6736109 4.146476 -0.25778615
-1.280379 4.740368 1.3421755
-1.4756775 5.8018637 0.80429137
-3.5231085 7.15958 -0.34005326
1.8858209 3.689011 0.5873686
0.8470534 2.7928786 0.6087649
-0.83124804 8.246246 0.012943525
-4.475008 7.1389866 -0.6380445
0.6853435 3.1018624 0.8538139
0.5318388 3.3226762 0.6139368
-1.9940398 2.663118 0.14686316
-2.1299305 8.730999 0.20793757
0.06041065 6.4553337 0.65911925
1.6345136 1.1689496 0.66049206
2.1257052 9.409615 0.55296814
-2.5279527 8.9419365 0.31645316
2.3196425 -0.6773524 0.43358934
-0.53971934 12.772221 -0.4023106
0.32361704 12.443216 -0.5961031
-0.3458134 4.5502462 0.9259051
1.2166088 9.318283 1.3127255
-0.8418921 6.2849607 1.0530198
0.13836014 7.081972 -0.12953445
-5.6688623 6.292715 0.108061224
-0.38045996 12.082283 0.7224766
-0.08815867 7.207197 1.5661895
1.3243606 7.001816 0.20127484
-0.31566286 7.264616 0.9333731
2.2204714 -2.0466752 1.141459
-0.36829942 9.70014 0.9346553
1.4820192 4.079151 0.42959213
-0.9833673 4.158512 0.7484393
1.0300404 9.171864 0.20722017
-0.07737182 11.939037 -1.0495889
1.8602471 3.9243183 0.27986002
-3.501893 8.714687 0.8886256
-0.5790247 4.613263 1.2663589
-0.14180395 2.7508397 -0.038749788
-1.7650168 5.379822 0.27815354
0.56991446 4.6950264 0.42093402
-0.054865018 9.027315 0.014157696
0.25446856 12.291319 -0.18962163
-0.5514574 5.9831886 -0.64153624
-0.7813871 6.449954 0.65448296
1.4104297 10.568462 0.63315046
0.16451576 7.95214 -0.08900643
-0.01815404 5.45774 1.7444639
0.19829789 8.381571 0.5530429
0.60239553 3.9248295 1.548574
-1.1760688 10.38266 -0.02097511
-4.71912 7.465657 0.7734319
-3.4205308 5.599612 -0.80470574
2.1824675 -4.2944527 1.4415817
-1.5226722 5.692114 0.056094423
-0.16899395 12.824692 0.9222909
-1.5695357 1.8607345 0.029147074
1.3084083 4.9010124 0.10943189
-4.0718756 8.198221 1.6144011
2.1392102 8.976225 0.65348387
-1.0475864 3.3007402 -0.5359647
0.06979863 6.884557 0.56420684
-1.241447 0.65837526 1.1863737
1.2257872 0.5565723 0.32671362
-0.24382076 10.967796 -0.41977757
-0.5771997 3.1972232 0.58895993
0.83214617 6.538062 -0.016390644
0.21935415 6.24049 1.05491
0.7840818 1.2931545 0.9601754
-0.6845727 7.1958075 0.67162466
0.34960032 10.545483 1.0276492
1.4010978 6.1247454 0.12594378
-1.7314174 8.089293 -0.02224125
-0.6623393 9.294086 0.35371107
-1.9851348 -0.5768409 1.4613242
2.8636832 6.7946978 0.98725224
0.57574975 4.1968737 -0.29952848
1.6836932 1.5874307 0.5183784
1.9243765 -1.1976008 0.89597726
-4.7283936 6.9920273 -0.41499734
2.195139 -2.652886 0.72191465
0.12409936 13.427195 0.1737122
1.7417738 9.919268 0.60102963
-3.485753 5.6464214 0.23856735
0.07144046 5.0732794 -0.06328167
-1.740238 -0.4233777 0.03952574
-0.06044638 4.4976234 -0.41727304
0.99601066 10.43099 0.08430323
-3.5144386 6.71515 -0.46889567
-1.4271054 7.5655603 0.5844902
-0.8572788 10.09808 -0.20368639
-0.41614318 9.203016 0.04674294
-0.5757084 8.15469 0.28728712
-3.277101 5.600404 -0.15439522
2.38028 -3.4252615 0.95965993
-0.93423367 6.622609 0.33709127
-0.8628533 3.6941009 -0.6240622
1.315532 10.072596 0.67744315
1.2561557 8.898867 1.2695713
0.03565497 13.344408 0.56330276
-4.7130423 6.34319 -0.41596514
0.24271354 8.394474 -0.16342911
0.9072298 8.760168 0.2539073
1.0152724 5.5341625 0.26384598
1.0228641 6.7459564 0.32852542
1.3394928 0.1979307 0.34619987
-0.25922102 9.345331 0.77807486
-1.7670114 2.166562 -0.22619584
-2.3811574 9.836256 0.6058279
-2.036014 -1.943614 0.7554623
1.8086147 9.152832 0.5442003
-0.14333862 6.311325 0.9742365
-0.79949903 6.06081 0.0040320097
1.8880255 0.1302565 0.7785039
-0.5870298 1.5161152 0.5455232
0.011445126 7.674074 -0.51052535
-5.0984917 5.652008 -0.41577345
0.22097233 4.869361 -0.40802568
-1.9638717 3.4322457 0.42528784
1.6353347 -0.3051721 1.2275672
0.5387696 8.4732895 0.7756951
-1.576515 5.310479 -0.059321426
-4.4974184 6.6838236 -0.11905865
-0.5124527 6.7191153 1.2927864
1.723728 1.7150581 0.8822502
-1.9979839 2.27782 0.77293265
-2.0078325 0.8842467 1.129051
-2.0840144 1.9303963 0.8337407
-1.1681864 7.828746 1.2658694
1.3713329 1.8644431 0.72239363
-1.6584094 -1.2446437 1.4211707
1.0854626 9.884129 0.91180885
-0.99712825 1.5462141 0.2266596
-2.635953 -4.5913315 0.85342777
-0.44622505 6.075058 0.99082875
-0.24441478 2.479093 0.6063193
-0.10976696 4.523447 1.2570267
-0.82121396 8.672325 -0.035080984
2.000949 -4.6045513 1.2172759
-1.4197283 1.2309902 0.7801589
1.2598209 -0.13279495 0.06928176
-4.2151556 6.3619223 -0.60105157
2.0726395 -1.3189323 1.2595077
2.3469582 -2.36976 0.92612624
-1.5891535 3.5655012 0.4827878
1.4292967 10.5683975 0.24615613
-4.5748854 6.307824 -0.78381205
-0.609805 9.335014 1.0518084
-5.4750395 6.355441 0.3330204
0.3751042 5.4228687 1.0797901
-0.4532566 4.9098864 0.6783731
0.9648447 8.115013 0.4697345
-2.3688946 9.810772 0.18981162
-2.6935697 -4.372798 -0.21776956
-4.0290356 5.2858906 -0.12897117
2.1006036 -4.2237988 0.6224675
-0.77600837 3.028408 -0.47307044
-1.590446 1.5550399 1.047045
-0.27019158 12.84217 -0.10689807
