0.004552224 12.702745 -0.5721274
-0.25348195 8.142275 -3.562787
-0.6370833 10.740799 0.88991344
-0.23059629 12.80048 0.54151917
-1.0336034 8.205712 -2.9466696
0.41387504 7.8632116 -0.27593237
0.8965401 4.6477427 0.34634435
0.7041236 2.035561 1.269219
-1.038771 0.95742106 0.28890312
2.1517894 0.7248768 0.74649817
2.4607613 7.367885 0.595918
-2.0333076 3.2477877 0.16020325
1.0084356 2.7483976 -0.18138035
-1.5165217 10.134676 0.6598189
1.6344631 -1.6328886 0.87108666
0.42366394 7.6763377 0.98699844
-0.88118863 10.897069 1.1882141
-0.2924889 3.2128732 0.997629
-1.2802263 -0.32802352 0.67343974
1.3402517 6.6305294 0.6064962
0.5518205 7.2472277 -3.853386
1.5681912 9.652104 0.9104837
0.2779275 13.372432 -0.2647163
1.3075136 5.196262 1.1546197
-1.3859154 10.440337 0.91517866
-2.538902 8.047781 0.72854924
-1.7719927 4.9012837 0.70005494
-0.9593884 6.90662 1.2487837
1.0495523 7.2257204 -2.57138
-0.049728774 2.978175 0.0242816
-0.18433693 4.7047772 0.71701676
1.0713133 8.432436 0.5563603
-0.14218543 7.039144 -3.4928026
-1.7388856 -1.8173406 1.0745776
-0.5722984 12.904604 0.28577265
-1.0521121 1.4588766 1.0387721
-0.437381 7.0261593 -2.9552467
-0.8418903 4.982801 1.3388352
1.2097217 0.38034716 1.2612953
1.8862604 10.116157 0.31167534
2.4473639 -3.8861384 0.97849107
1.3825886 3.6992285 0.26504454
-0.9094729 5.8985095 0.030133473
1.2809956 1.4166963 0.41030666
1.2476033 -0.35471657 0.5354288
-0.34894308 5.8228483 1.0962106
1.4333495 5.918124 0.65837514
1.8696324 8.922588 0.31256172
-1.5262747 -0.1522212 1.4255906
0.6306354 2.0688148 0.54133373
0.3353062 4.7875037 -0.69398355
-0.70866823 6.593051 0.60332936
-1.8549464 0.5924592 1.4620905
1.6740253 -1.2355719 0.7496475
0.6955995 7.300676 1.161764
-0.8633022 7.848423 0.09620064
2.9395323 -4.5928335 0.27030843
-1.2015733 9.921928 0.4831596
-1.8658274 2.2045624 0.29070765
-0.22135374 10.517574 1.3489611
0.5389747 1.9420763 -0.1953454
-1.3801038 5.417258 0.76793385
-0.3574471 7.090302 0.30044532
0.42676795 1.4408668 0.33775294
0.4859526 10.5972595 0.8127536
-1.2762184 1.7832084 0.9284853
0.884445 2.076865 -0.40454182
-0.85497653 6.5986123 -0.037043095
2.7219934 -4.3460445 -0.32194808
0.095283486 3.9064097 1.4372073
-0.43282124 6.9291954 0.66551614
0.062952615 12.170172 0.018258888
0.54315686 1.5385658 -0.021919714
-0.45870686 6.3848534 -0.24107465
-1.6388209 1.4208589 0.16556486
0.56874305 12.881051 0.22121479
0.36816546 4.9675765 1.3326486
1.099732 0.9528654 -0.26135063
0.65253246 10.33307 0.26442322
-0.24343126 13.672219 0.65728015
-1.6051835 2.303047 1.1627412
-1.4961169 2.1663964 0.40058804
0.7217765 9.372048 0.28481632
-1.1549555 6.1747074 1.0662813
-0.100700825 7.3217387 -3.10172
-2.4096608 7.3493385 -1.1094726
0.34387365 5.498008 1.2463762
-1.2674534 0.67926586 0.14112683
-0.46458104 7.3050632 -4.169629
-0.53944457 6.777979 0.24661483
0.90162677 4.221271 -0.56295973
-0.17176965 7.72369 1.1859472
1.0894626 8.718646 -0.044598483
0.817491 6.232707 -0.24380499
0.94651866 4.4518895 1.508843
-1.3412943 4.262408 0.6755564
0.731717 3.0975962 0.44801936
-0.0033382555 5.8313093 0.537726
0.04859879 4.234758 -0.31234428
0.30911145 6.290684 0.8346063
0.5542542 3.007876 1.2803786
-1.1933155 3.3488917 1.4457726
-1.3516475 3.6441312 -0.03752138
1.1859112 7.83393 0.9104074
0.004192829 3.6297045 0.42557603
-0.031761695 8.337299 -2.57656
0.22379085 7.6442475 1.7014979
0.2233336 5.5585923 -0.0003117498
0.62692326 7.7093024 1.2922958
0.21641685 13.558358 0.08702876
0.56298435 6.835005 -3.2533722
1.8223181 0.07555052 1.4220421
-0.488434 6.20327 1.8247535
-1.2278882 5.6105967 1.0686601
-1.6680225 1.5674149 -0.23966396
-1.1777143 9.541122 0.37796584
1.6322875 8.694998 1.0821507
-2.6163814 7.666601 0.59657705
-0.86455595 11.05345 0.7518888
0.6298794 4.6150527 1.3154526
-2.1178584 0.89470685 0.9044096
-0.54398656 5.698746 -0.003240308
-1.3120033 5.9072733 0.7794622
2.221645 -1.2285159 1.2415427
-0.5567253 2.1482885 0.76814383
-0.2402813 6.8534966 1.0833772
-0.82025886 5.2214246 0.11546564
0.12991896 8.168201 -3.5416458
-0.7951004 7.4082656 0.28152454
-1.2023793 2.7892733 1.2526462
-0.9072879 7.4707837 -2.5216243
-0.8061111 9.5839205 0.96939445
-0.09458603 10.257109 0.9993533
-1.8186061 4.564235 0.8743819
-0.44764197 6.970013 -0.48655987
0.012312995 10.415048 0.5781989
-0.17421278 6.886687 -3.164555
-1.5631438 3.5959806 -0.37151554
-1.6141735 1.9269491 1.1799066
-2.3451207 -0.6988115 0.79919803
-0.9904813 1.0573889 1.0826094
0.1396821 9.351386 0.9004134
-0.4079729 10.946366 0.17612252
0.6097702 7.664278 0.021456694
0.08242199 13.184749 -0.025761832
-2.1295986 3.1240306 0.525341
0.07866664 8.284216 -3.922222
-1.586333 7.6939344 0.18856102
-1.5034062 5.0406356 -0.25253093
-0.3587111 12.390997 0.4798459
1.2552752 3.416247 0.873774
-2.0402458 2.5792985 -0.010685177
-0.918503 4.0516634 0.5041541
1.1788579 5.648864 0.46996212
-1.146201 9.958354 0.87043846
-1.1430744 8.209022 1.2331127
0.22719708 3.3470411 -0.5307227
-0.8688304 13.404567 0.5783225
-1.0783163 5.763239 1.5184287
0.8276744 1.618497 -0.268783
-0.04695876 9.117717 1.1848096
-1.1343148 4.730076 1.2021797
-1.772136 7.516614 0.6625987
1.1632942 8.251264 0.93823665
-1.3437916 5.949462 1.3754542
-0.9552902 4.651396 -0.25800338
0.5805101 8.114125 1.3673847
0.20842008 13.144609 0.3757778
-0.49309278 5.074035 -0.08215032
-1.1709206 9.792647 1.200166
-1.318073 6.5734158 0.42472777
0.78586614 9.734059 0.07340724
1.537224 3.1197662 -0.3332768
-1.3530372 8.259834 0.8983297
0.3416842 10.612683 0.420389
0.5504852 1.0943506 0.2701188
-1.5713475 1.2634699 1.3598759
2.2720208 8.415991 1.0161189
-0.11219556 9.5687685 -0.08323185
1.0311885 7.190905 0.53988177
-0.059423335 7.488324 1.5337071
2.0245068 -0.42310333 0.5706582
2.2686303 -1.373348 0.87780243
1.39452 2.8877811 -0.022015726
-2.5619726 9.644886 0.7217827
-1.4684273 10.112726 0.29165795
-0.9031562 7.248687 1.5539033
-0.78762174 3.8583186 1.2018874
-2.2341452 0.48132885 0.3845725
0.022278704 12.436902 0.65367985
-0.008250778 9.746528 0.34384406
-1.3408899 7.8804045 -2.762495
-1.4883263 0.4525436 0.9264929
-0.27036315 6.599137 -0.59307796
-0.585708 2.6221263 -0.16690966
-1.8622867 0.46516433 1.1075102
0.2297978 7.5242343 -0.042596836
-0.76531005 10.09016 0.8659713
-1.8609023 1.1035131 1.2498672
-2.4713976 7.5254993 0.2394973
1.0187755 7.03997 1.2631705
-0.46014756 11.767159 0.70232
0.62687445 5.2643557 1.6915289
-0.4749254 2.97562 0.38001037
0.7894126 7.0486865 -3.039158
-0.3107358 2.6950707 0.089473546
1.9571282 1.4351941 0.22382598
0.35462493 1.8349286 0.17309754
2.329648 9.095211 0.8912062
-0.123345755 4.9053674 -0.7059218
1.6976755 2.0890298 0.9495509
0.06921419 7.4000764 -2.6888092
-2.4762692 7.635553 -0.4414257
-1.3989638 7.4782963 0.44852465
-0.73848134 12.049662 -0.36142564
-1.0060762 10.598106 0.9466954
-1.3028917 -0.22317857 1.1251235
1.9982816 7.1610312 -0.5914028
1.5335785 0.6728274 1.1278708
-0.56067914 7.374113 0.61043775
0.89209366 7.16412 -0.18245582
0.23605837 5.3146176 1.6126608
0.5791635 8.064634 0.045327343
-0.006054604 4.772626 1.3966012
-2.1330745 0.94343203 0.19583112
-0.95549285 2.2888806 1.3113354
-1.9617772 -0.6494651 0.9360704
-0.86176354 3.5427632 0.90674543
-0.2666595 8.079303 0.84663624
-0.40626833 8.48839 1.087258
-1.7703593 10.570983 1.1289154
0.19177496 7.4778214 -3.3460832
0.24038687 8.96093 0.89263284
1.9728273 -2.7882254 0.9017101
0.7444132 3.8313572 1.1297798
0.53322285 6.1556683 0.12464388
-1.9895682 3.6473215 0.0985232
-2.6998186 7.364322 -0.46455073
-1.7953469 1.4991939 0.509404
0.86703634 8.801818 0.718014
0.8772175 5.6047087 1.6101063
1.1140884 0.021134455 1.0786986
-1.0694436 3.2658482 0.041794743
-1.4206287 6.702571 1.2332616
-1.8974707 10.331977 0.45244372
-1.3877077 7.3229775 -3.2543685
-0.019667713 9.527782 1.2294841
-0.73433566 12.8606825 -0.35215303
-1.5437651 1.0326822 0.18484628
-1.0559231 6.566667 1.0939842
0.055224214 5.6861153 1.6426998
0.9066196 7.2567987 1.6260492
2.1376438 7.2240214 -0.18864347
1.3119587 0.04693889 0.60382396
-0.20562316 11.65377 -0.6699435
0.08613709 3.6161962 -0.2310552
-0.17818522 6.1444335 0.35591912
0.26225117 7.2113523 0.5503018
1.2260824 5.28012 0.6802711
-2.0315778 8.545969 0.7532697
-0.4898846 13.182113 -0.4149017
-1.4359697 5.658435 0.42226332
0.87475693 2.9863794 0.09485359
1.415289 2.7044146 1.0984919
-0.52143455 7.6372943 -0.037154216
0.49339753 13.281977 0.08480933
-0.1374763 8.29134 1.6028663
-1.5248587 3.4380817 1.2202421
1.2156041 9.772311 0.18812387
1.9214258 -0.7292297 0.31098282
-0.8782545 7.0066404 0.041294392
-0.585472 11.394439 0.61138743
-1.9619997 9.405919 0.6439803
-2.598343 8.984192 0.752035
0.2158614 7.2601256 -0.4312884
1.0157707 7.8429766 1.3174886
-0.34346196 7.4521914 0.26329297
-0.59871966 4.783836 1.0553488
0.987788 5.2388854 0.008621475
-1.1612554 2.6696784 0.5145731
-0.941635 12.721635 0.33148977
-1.1784129 4.3618407 -0.48319846
1.1833866 3.1064816 0.2630362
0.3470369 1.7741888 0.58165056
0.8518773 7.642935 0.9581297
-2.120492 7.164645 -1.0669935
2.3668864 -3.9682777 0.2845942
-1.7770933 7.1615806 0.82662565
2.7803023 7.4165616 0.45934027
-0.7492673 1.3563923 0.79345345
-2.5135546 -4.5897636 1.1415936
1.4220285 6.290802 0.8078293
-1.6200807 -0.40583396 0.8906026
-0.6023791 12.689494 0.63449186
0.8432573 2.8246193 1.1145145
-2.7715337 7.2280145 -0.057393674
-1.4375386 8.736474 0.9053399
0.69357824 9.832429 0.47047576
-2.156131 10.007502 0.36640579
0.05970428 9.382133 1.5864754
-0.78360426 8.347199 1.1926085
-2.409075 -3.8267992 0.92841107
-1.5410799 6.4109154 1.0029845
1.486737 5.487299 0.86968565
0.03539219 10.853193 0.6173022
-0.93866205 3.6344378 -0.14754471
0.5393297 2.4492602 0.5810572
-1.904162 -1.2677993 1.4932932
-0.35498193 13.577576 -0.34937957
1.9652762 10.39343 0.57475615
-1.0685083 5.8646216 0.39575043
1.0535914 0.7045353 1.1376952
0.17953698 4.83804 0.6237548
-1.4015453 7.799036 1.2065343
-2.1391664 7.170106 -0.6891498
1.3338006 0.8865521 0.06926892
-0.18141784 8.791634 0.48519024
0.22588104 2.472487 0.9801845
-1.0341944 9.010926 1.2595652
0.07744118 3.9289336 0.054250192
-0.7709736 5.287498 -0.5498873
-1.8005949 9.757299 1.3327324
-0.13265316 8.135433 1.234599
-0.8108543 4.329125 -0.1765491
0.18650481 12.792468 0.5028622
2.728263 7.390528 0.0062685055
-2.201283 0.08430668 0.103752516
0.82992476 8.071505 1.6494704
0.7289783 2.7050533 0.3275448
0.5223582 5.435941 0.55920506
-0.5215622 3.2582302 1.269684
0.38669974 8.35797 -3.634114
-0.678245 5.784297 1.4043068
0.6445263 6.555005 0.7179032
-0.2980019 7.841679 0.2567496
-1.980766 4.6906233 0.49970973
2.2315638 8.027639 0.7660873
1.8344668 8.881817 0.78133136
1.2062783 3.7178679 1.2595721
-0.12147354 12.087631 -0.32651553
-1.8499504 9.803529 0.97133267
-0.21796201 5.5782795 0.8203923
1.0924139 1.6811249 0.10515861
-0.3226827 2.9297402 0.7574274
-1.0944588 0.58562446 0.9175366
1.3948095 7.062482 0.5989706
-0.76733124 7.2730474 -3.5286052
0.03819266 7.0298824 -2.867682
0.8922827 7.8371553 -3.3898182
1.813013 1.4499184 0.8391461
-0.40857324 3.5273738 0.32349032
-0.79369 9.164205 -0.18244784
0.60040826 7.0632873 1.5717223
-0.21462345 12.072462 0.6925014
0.06966543 12.476545 0.28504723
0.74494314 5.658253 1.2825831
-2.1623664 -0.99248666 1.4881889
-0.36615667 6.5734134 0.8645042
-0.17452522 8.197485 0.08563952
-0.59864724 7.3600097 -2.8148267
-0.63912827 8.701984 1.711813
0.20187034 5.929477 0.17441188
-0.7342397 9.134513 0.92962617
-1.1966732 8.027206 0.16936803
-1.6266158 0.8116576 1.1787449
-1.889095 4.731619 0.13334821
0.16970535 8.622905 0.5824496
0.46923736 12.955867 -0.12068412
-0.96292794 6.966395 -3.683645
-0.8099714 5.4917307 -0.16220228
-1.9686717 1.451954 1.2469829
-1.737837 2.9827344 0.36991414
-2.6718566 8.336799 0.53431654
1.1204245 4.845165 1.3784027
0.30418262 10.206186 0.76412755
1.695569 10.490638 0.86020094
-2.8551962 7.508033 0.2998535
-0.95345414 4.8600516 0.86773825
0.9667873 10.087754 0.2450835
-1.9783895 -0.860959 0.6173992
1.2350309 6.770147 0.30128837
1.0416573 10.8032465 0.7695097
0.6502801 8.204461 0.42575574
1.2206295 3.370243 1.2381897
1.5091463 3.1261234 1.0382354
0.033896763 8.376679 0.9341187
-0.1201239 7.544344 -4.270406
-2.2688873 2.0683966 0.4987313
-2.776672 -4.545645 -0.73267925
-0.8258201 9.012558 1.6291529
-2.1963105 -2.3005314 1.298087
0.86126757 10.091091 1.4783444
-2.0785544 3.917711 0.43772367
-0.18028842 13.088639 1.2344539
0.95380247 0.3338241 0.8892376
-1.9722811 -3.930611 0.835264
1.4179834 4.742911 -0.18295215
-2.5509348 7.5096564 -0.7779986
-2.1512196 1.7580673 0.28288272
-1.5196831 3.2167842 0.70558435
0.5400435 4.5466695 1.7004106
-0.83078194 3.4130437 1.3391514
-2.2692666 0.040255487 0.9043335
-0.48753762 8.305451 1.419082
2.1510406 8.719236 0.59183836
0.91203874 5.0873733 -0.44070897
-1.3353276 6.757063 0.8366549
-0.08969996 13.753721 0.29190123
1.1059089 4.217811 0.8880314
-0.014183929 5.6000595 -0.6638678
-1.4295585 2.5038762 0.8520206
1.1047134 4.9746447 0.9180464
1.3479764 10.258797 0.75153804
-0.7840368 5.5771303 0.32304022
1.0001824 8.760153 1.4085933
-1.6133025 8.532384 0.20510243
-0.95694166 8.249131 0.85818297
-0.40351194 2.2818236 0.44432706
-1.1906989 5.615987 0.046673004
0.38800353 2.8713355 0.53715473
-0.5845341 6.3994274 0.22061639
1.5252068 9.000247 0.5071291
0.2000275 3.5356827 1.4589596
0.6342622 9.945907 0.8600114
-0.14525643 7.306952 0.6175052
0.08461982 7.929337 0.8956033
-2.0551567 -0.5650851 1.5665812
-1.2674719 0.32304263 0.2694659
0.046043735 11.494149 0.034367964
-1.0423541 3.6872582 0.6412475
1.2012701 7.292751 -2.260713
0.027136382 7.790145 -2.640696
0.20264319 9.900587 1.0756595
-1.4882649 5.4065356 -0.22418413
1.3770319 9.837934 0.5691546
0.43616888 5.9005814 0.9949523
0.6183635 5.275702 1.3323219
-1.1442239 10.233323 1.1488919
1.3151109 -0.8379181 0.22939011
-2.2146428 -4.5985055 0.8099908
-0.39108053 12.949754 0.90683436
-1.1122077 6.790891 -0.2936192
0.11963585 5.222192 -0.68004304
0.6397148 1.0909333 0.73177475
0.07008326 8.430195 -0.18425122
-1.546731 2.334243 -0.30941403
1.2656788 4.902039 0.53475666
0.16713278 6.5672655 0.53362143
0.11570053 9.049197 0.5091315
0.51089 5.847251 -0.16610248
1.9707506 1.9127154 0.35462484
-1.4073663 7.199219 -2.88768
1.7476339 1.0797654 1.0979538
1.0504615 7.7204914 -2.3260143
0.11469042 4.163438 1.1356664
0.40725026 9.149868 0.21171589
0.8720689 -0.7502414 0.6157192
0.5461228 13.238175 0.45584735
2.1255858 -3.5628648 1.1533054
-0.6254691 2.4826267 1.1047189
0.4551469 7.0124764 1.2158039
1.9268824 7.1486535 -0.97929174
-0.41618422 2.5027947 0.8114419
-1.0374999 2.9005535 0.8552719
0.91841966 4.8443084 -0.087431915
-0.857839 8.0539875 1.5627867
1.0130059 9.570918 0.44667032
-0.13954397 7.88025 1.5863068
0.4291887 6.858127 -2.8201098
0.4033277 12.66596 0.87352604
-0.07629434 8.578821 0.1587367
1.0602092 3.7937567 0.52864766
1.1629587 5.7029805 -0.013057604
-1.7920713 0.69813377 0.7322986
-1.0535867 7.3096294 0.57766163
0.5011682 4.394952 -0.5704725
-0.4582717 10.075012 1.1623374
-1.819675 2.3825984 0.61088324
0.95313203 2.275396 1.265082
1.1360149 0.18367183 0.024552343
2.0526319 7.5079813 -0.85918534
-2.2837098 0.12151097 0.5221813
-2.131851 2.7295837 0.63614947
1.1926944 1.4350421 0.8106647
-1.1249839 4.056388 1.5716354
0.7159905 3.6161208 0.06996806
-0.61283755 4.070368 -0.59873354
-0.03218109 13.644536 -0.16415176
-0.6763692 3.3727558 -0.08342004
1.5989194 -0.88785136 1.4471223
-2.7709851 7.572437 -0.14872344
-2.0387712 -1.6704385 1.4425238
-1.6050181 6.194043 -0.08177252
-0.009394038 3.7991846 -0.51617444
1.4059289 8.585757 0.24064404
-1.3132683 4.7425637 0.53543174
2.0467572 -1.117347 0.6439854
1.0904536 6.6557484 1.2924697
-1.6536175 4.0979285 0.44719064
-1.5082842 8.905336 1.3029171
1.6484743 9.767772 0.26202542
-0.5431977 8.032788 1.1012483
0.33260986 9.168864 1.2951549
-0.5471075 8.400656 -3.709514
0.55121857 3.405715 1.457247
-1.1331158 9.836736 0.10067989
2.2457078 -1.7560577 0.76250035
0.40126008 2.5036545 0.23090741
-0.29622036 7.5941973 -2.5548558
-0.1569742 4.8499155 0.030535275
-1.1874241 10.095639 1.516706
0.029805994 7.5992413 0.3067543
0.511283 12.515576 0.47038645
0.50019085 7.21883 0.012982684
1.7103313 3.9943147 0.7683277
-0.60178804 8.085056 -3.4631245
1.2750132 2.2695365 0.31574392
-0.84320647 13.161922 0.94860625
-1.5136682 10.0128145 1.0290562
-0.26152036 7.228345 -2.683436
-1.3181714 2.459282 1.340158
-1.0582237 3.2614384 0.6264379
-0.26226833 11.444523 0.8064181
1.2087528 6.2116117 1.1352293
-0.25812387 13.349942 -0.032168996
1.0517007 9.41868 0.014111573
0.84031564 1.7015101 1.14884
0.88749945 5.073707 0.34413975
-1.3173112 2.0401857 1.362214
-0.49963415 3.601973 1.0136352
0.9275197 4.611336 1.0527333
0.75331146 1.6630741 0.75979435
-1.8946775 3.3500848 0.7223007
0.84861845 5.2687273 0.6905916
0.8760809 10.717297 1.1515876
-2.4924428 7.0894213 -0.32999215
-2.2182093 2.3607345 0.7741203
-0.86709833 4.4842377 0.99093604
-1.0425849 7.741409 0.49873897
1.0677234 6.8384867 -0.06603514
-1.645484 4.692567 -0.19040893
0.5913615 9.396847 -0.08045344
1.3733513 7.553553 1.1592652
1.6083387 0.7771649 0.35374263
-0.558824 5.5035663 1.8003086
-1.9544854 -0.46267077 0.5412496
0.04787234 4.600664 0.35183793
0.90804034 8.539559 0.22320978
0.32186133 8.748232 0.21414928
0.09234137 7.017042 1.33792
-0.08970223 6.0479736 -0.033201773
-0.3537386 9.527979 0.24650268
1.469701 7.45563 0.7754016
0.47505122 2.7441983 0.9142296
0.22983912 5.113481 -0.0892748
-0.3913575 8.849158 0.110560015
-1.5089473 2.8729062 0.030336352
1.0035487 6.4625425 0.9305008
-1.0433246 5.652498 0.69619477
-1.2463282 6.013843 -0.22762775
0.21531798 7.196985 1.6960086
0.34523386 9.054378 1.6760304
1.3368987 8.018879 1.2550083
0.67981094 9.566346 0.8049649
-0.27099457 12.461372 -0.40803716
1.4995514 0.2734163 -0.20077956
-1.0708029 8.503039 -0.22196314
0.39517328 9.62976 0.30522454
-0.3698223 8.138671 -3.119627
-1.6310452 9.769757 0.6472414
-0.4654566 9.853648 0.83716285
-0.7207733 7.856311 -0.29230222
0.9314689 9.077674 -0.0790278
-0.22615315 12.699857 0.15721714
-0.22471441 4.8914075 1.0841955
-0.16564193 7.268402 1.227819
-0.3661159 4.588884 -0.67827964
-2.0074391 -4.605829 1.2138251
-1.5289787 9.729239 0.18950963
0.111677736 13.287158 1.0658367
-0.73133886 2.9568179 0.05098835
-1.2323303 4.380611 -0.0991171
-1.1528037 10.732172 0.5916092
-0.5297777 6.9791226 -3.3884118
-1.7585106 3.8864253 -0.20338348
-1.7163372 9.062415 0.7077223
1.3430705 9.930348 0.98487735
-0.7835053 7.036359 0.42949894
-1.5813035 2.6653202 0.51416206
0.5788287 3.2534697 0.14664109
0.09337264 2.8063352 0.7774706
0.6974295 6.163486 0.85538447
-0.9101583 4.112127 0.13310948
-0.95168513 8.937217 0.5374822
-0.8612401 13.179807 -0.08516394
-1.4126127 1.223138 0.5349266
-1.1555655 5.2268395 -0.05936853
1.6089932 4.6127434 0.16621253
-1.8112296 0.50515485 -0.19550371
0.075998165 7.7130675 -2.2625968
1.3115747 6.2684736 0.36328036
-0.42432317 4.922153 1.4333789
0.43556482 1.4271051 0.7150479
0.06461528 3.4029114 1.0973502
-1.0702147 7.6927247 -0.25706345
0.3286161 10.264892 1.1409414
0.041533858 6.7948465 -3.831985
0.2010124 5.5131006 0.36248496
0.68549955 10.937067 0.86084074
1.087994 2.4981263 -0.48257506
1.946301 -0.22992733 0.2807962
-0.9956799 1.0320742 0.6877461
-1.5876375 3.086142 -0.34848824
1.6275203 -0.81110275 0.07644933
-2.5780518 8.523095 0.21243143
-0.8088265 12.428124 -0.10144237
-0.9431198 7.913889 1.1679413
0.5164967 7.861548 1.630976
-1.1576957 3.0042107 -0.31267557
-0.56887805 1.9018663 0.47644746
-2.5872934 7.8234644 0.059702564
-2.158439 0.4860603 0.8283745
0.4438728 6.890531 -3.6588078
0.16225876 12.05024 0.6856339
0.7938906 9.35078 1.632656
1.9934943 7.429105 -1.217768
-0.46451482 7.602058 0.9693022
0.4919894 5.6725783 1.6239381
-0.8230951 13.505729 0.1837146
0.0512355 7.2034225 0.22134483
-0.95100987 3.0366247 1.3729345
0.1352703 2.6093018 -0.140993
1.7233919 1.3937163 -0.091796905
-0.42699367 5.420917 -0.27333412
-1.4257504 7.885935 -0.14274314
-1.6822305 -1.5531753 1.3744086
-0.9158382 7.334248 -3.9340422
2.1586852 9.294175 0.21953109
-0.34787047 5.8071647 -0.6359863
0.13607585 7.6617675 -3.0190892
0.6874815 3.8872383 0.42299354
1.2333188 5.2712955 0.2943706
2.1020527 9.83713 0.94849163
1.9688975 -1.6863155 1.0315468
0.014736825 6.7958665 1.6470165
0.516961 8.743529 1.5391402
1.4518775 2.635111 -0.38137448
2.272117 -2.3880382 1.1231292
-1.7487404 1.8206978 0.22372988
-1.1138687 7.8791842 -3.1790862
-1.272171 7.2362695 1.460671
-1.4947048 0.49206367 1.445722
-0.11387881 12.261926 1.0626346
-0.36101598 7.1828685 -3.7383146
2.0682766 9.69325 0.2811387
-1.1589813 7.132521 1.0185328
-0.07140249 12.0794325 0.35660234
-1.5450023 0.3736699 0.012859566
-0.15627986 7.509847 -3.529429
2.5845292 7.404148 -0.42346686
1.1692176 1.7744282 -0.3535997
-2.2460456 8.2450285 0.5183064
-1.390929 8.817061 0.5068289
0.15700135 2.4636214 0.59742546
0.56368566 6.024392 1.3218871
-0.964508 3.7101932 1.5372988
0.21373874 8.330733 1.3186896
-1.0143865 1.9655511 0.6595405
1.9676614 0.6200571 0.41996336
0.9255786 6.8532286 1.6246758
2.4768145 8.712252 0.8537367
-1.349743 9.231109 1.4151722
0.7437758 10.667478 0.5253565
-1.4155533 7.1495748 0.755503
-0.7949778 8.679931 0.8827994
-1.7141321 3.3668768 0.35264638
-1.2370236 6.976084 0.4407665
2.6307707 -3.9549897 0.5927709
0.21758911 6.794599 -0.5112452
2.223204 -0.97133243 0.9553872
-2.5943363 -4.0600195 0.579886
-0.32276347 8.51798 0.716927
-0.776658 3.180297 0.96849346
-2.1057792 -3.407802 1.2390065
-1.821622 8.808925 1.0344034
-0.8532113 2.672679 1.353575
1.9223924 -2.4553607 1.2104161
0.31873506 3.6071055 0.07082712
0.7278919 2.5796452 -0.46070635
1.5669714 1.4087596 1.1424396
0.39865842 9.347048 0.5755413
-0.33194733 4.5228453 0.35522228
-1.7031062 4.877421 1.0991935
-1.3017123 1.1578817 1.218391
2.7228184 -4.6133404 -0.06818884
-0.20584248 3.237928 0.44089842
0.2956688 3.9513192 -0.27933308
0.6859543 7.9387813 -3.7086825
-1.9624922 -0.10350966 1.5343632
0.24519087 8.316097 0.23920283
-1.1583012 5.0142508 0.26810342
0.3354476 12.328522 0.7784169
-2.65834 8.78265 0.46496567
0.8622369 1.3413132 0.5457877
1.3478485 0.79632753 0.8523665
0.64782524 10.455978 1.4109381
2.0435517 -0.094907865 0.7405416
-0.27534574 7.53976 -2.1972485
-0.50381225 4.117455 0.42769867
1.9091687 2.334187 0.3483888
-1.8688633 10.190662 1.2532638
0.27284425 6.1801314 0.4749232
0.7269856 5.4854198 -0.45956296
0.837389 4.8385153 0.685067
-0.8238242 12.748209 0.9805593
0.7648049 6.7905526 1.0333451
-0.45134896 9.048084 1.6355804
-0.29590017 6.784961 -2.6039562
-1.0151188 4.45966 0.6430416
1.4228139 -1.2709644 1.0348
0.020142008 6.596824 0.938646
1.2625916 3.7990797 -0.08451885
-1.2666173 9.60746 0.7726893
-1.1443977 7.0842676 -3.4090555
-0.6024186 12.528268 0.22652425
-1.8677398 0.8868137 -0.13560528
-0.6925176 8.761727 1.2920957
0.17864257 3.607127 0.76372474
0.4104665 8.1203 1.0216818
-0.052644286 8.280024 -3.2307065
-0.27314958 7.3359585 -0.4789829
0.4356979 3.5432217 0.4118986
-0.88328445 7.4378576 -0.055962097
1.7269675 9.963495 1.1864223
0.4328712 7.475461 0.32154435
-0.45199266 12.160056 -0.193147
-1.4286218 2.890831 0.8494619
-0.61597073 6.9569855 -2.5481956
0.78539693 7.1097355 -3.500169
0.74378216 4.7334275 -0.6109366
1.6477122 -0.60452455 1.1425229
-1.0122588 3.6839209 0.23706798
-1.1170988 5.5750914 -0.34709716
-1.0488787 7.370003 -2.943671
-0.26078528 3.8868377 0.6539149
-0.40342763 13.729603 0.04494778
0.49943224 8.933009 0.6027901
-1.9291298 -0.08457307 0.42336547
0.897334 5.902293 1.056457
-0.5209474 6.6141114 -3.2856188
0.8127728 -0.34375814 0.5219973
1.3863678 9.001833 0.11657832
-1.3054361 3.8918154 0.3768973
-0.004328155 12.805268 0.8671917
0.17893268 7.0304604 -3.2956624
-0.9634249 13.126564 0.2889465
0.35667226 12.180029 0.2962274
-1.202218 0.09381936 0.9117762
0.64764893 5.1686597 -0.17225443
-2.107468 -3.8050897 1.261057
0.8073764 4.0172 0.75701475
1.0080794 5.2260804 1.470107
1.2696557 10.03389 1.383233
-1.3438612 2.508761 0.102419004
-1.9976864 1.6362873 -0.04394442
1.9048542 -1.4439974 1.4098521
0.7087014 0.35835096 0.53900874
0.21020797 11.981962 -0.47091308
2.3611557 -3.6731637 0.5674609
1.4333408 -0.114906505 -0.113572285
-0.39331236 8.072163 -0.31908318
1.6846831 -0.12555136 0.5972099
-1.1679181 2.273049 -0.2832424
0.16681765 6.2455997 1.2319698
-1.5496439 5.7669096 -0.15890874
-0.9235907 9.510661 -0.055568527
-0.6941797 1.9029602 0.10702795
-0.10782562 8.503246 -3.6652954
0.7426568 1.196042 -0.12925632
1.5533319 5.0382333 0.13447082
-1.1553464 2.1325214 0.12472308
0.124853365 4.558481 1.7531245
1.3462394 7.5585275 -2.1988504
1.7561886 7.49227 -1.5661074
1.7718594 7.2004976 -1.3249044
0.2438663 4.1190987 -0.6577646
1.0945209 5.4548745 -0.28836554
-0.7243921 10.842272 0.47253263
1.1443715 3.149464 -0.18098426
-0.70408434 6.5940647 -0.43823296
-0.18261118 7.5142303 -3.925498
-0.49969652 2.2958288 0.05246712
-1.3371853 6.166151 0.48612902
1.691162 0.6965084 -0.07077442
1.1304388 1.9272318 1.294761
-0.57212305 8.319531 1.7588673
-1.1312432 5.136497 1.557017
-1.0257391 2.5458932 0.97196037
-1.5786043 7.3112216 0.06409693
-1.7830727 5.110845 -0.010279495
0.5818498 2.1712606 0.144818
-1.6868483 8.45616 0.96480805
1.1528431 3.0170743 1.0947019
2.0731094 -3.6890168 0.79558504
-0.52879494 9.544863 -0.10502268
0.3878264 9.566471 1.161436
1.9416116 0.3639876 1.184161
2.115431 8.775598 1.0691756
-1.6574024 6.544889 0.2021372
-0.22899567 11.65544 0.36121142
-0.23700494 6.638324 -3.597341
-2.7564974 7.9551425 0.40079832
-0.75047016 1.7409817 0.8487064
-0.11857065 6.6800513 -0.26200077
-0.8835077 4.810692 0.47429162
-0.06961429 13.348693 -0.42532817
-1.5725616 0.0013340919 0.67786956
0.24506699 6.667343 -3.1145148
-0.9500598 9.491324 1.3376485
-0.81257474 2.1901884 0.3431436
-1.1521658 1.0984857 -0.03409911
-0.42655033 7.3407726 -3.2833624
-1.3407664 0.9103114 0.87135744
2.5214453 8.123667 0.39668307
1.6126285 -0.52395165 0.40704533
0.7780667 6.0293803 1.6500958
-0.26541477 11.525685 -0.24448895
-0.47738817 5.969404 -0.28950176
-1.8637066 7.896382 0.55259544
-0.82456446 4.8059483 0.057801336
-1.5284362 6.0277147 1.0929381
1.3785757 7.1117477 1.0528867
-2.2833405 1.5287298 0.9851874
-0.31609598 6.862149 -3.965653
-0.53117704 13.297183 0.2607567
0.67772204 7.2345424 -2.7110128
1.0336918 -0.6434186 0.3325533
1.1940438 5.554206 1.2873017
0.80811167 3.2724001 -0.23258181
-1.5265174 8.359115 0.5719255
-2.448095 8.168164 0.14990711
0.20692073 3.2336082 0.33067653
-1.4860458 9.131679 1.0353587
1.1996518 9.1559 0.7145077
0.506763 6.4873853 -0.45132804
1.0801262 10.408586 1.3226917
-1.2745308 -0.03043038 0.4373781
-2.337565 -4.5738397 0.3801555
-1.0476341 6.547224 1.496791
1.2762417 2.4268262 -0.08970559
-0.54331684 4.7405114 -0.33343533
1.3713286 0.6525128 -0.2839604
0.28756055 10.99494 0.95628566
1.4288905 1.4984082 -0.31696567
1.455897 -0.9202736 0.88042927
2.2529242 -4.3301373 0.4448339
1.7741029 0.0083456375 0.023527838
0.61366177 4.5476856 0.016046526
0.22691411 7.7573977 -4.1473436
-0.5643288 8.079394 0.06218322
0.20321707 8.076545 1.6863837
-0.61704373 3.9160316 0.85408443
-0.94013727 2.51428 0.15729614
1.7144613 0.8613361 0.7064656
0.5471241 7.431696 1.5810307
1.6719221 4.8140078 0.46966484
1.3421923 2.2161684 1.1209351
-0.14083439 7.4064016 -0.11544513
-0.6970622 7.581323 -3.1351595
-2.7610574 -4.270484 0.2859295
1.6713581 2.860095 0.8013361
-1.9366171 -4.1988525 1.2829254
0.2423522 7.3801885 -4.1377964
-1.2803336 -0.6343471 0.9166599
-0.7828438 3.3513556 0.31693307
-1.579209 -0.3367364 0.3752802
0.66500086 6.698986 1.3693371
-1.9073613 5.106559 0.3592507
-0.34576312 7.9998937 -2.738065
0.8856786 2.3514602 0.19062315
-1.2615429 4.3281245 1.0685155
-0.22409569 5.054235 -0.34451827
-0.73717695 12.049832 0.03382518
1.5231293 3.2875848 0.35194063
-1.3961188 7.4942174 -0.18883479
-0.85536945 1.2446984 0.35436574
-1.1305981 5.399792 0.38802037
-0.98961675 6.8206015 0.7479803
2.6401277 7.6774664 0.28441453
-0.3324939 5.3286133 -0.6501592
-0.04937209 9.435449 0.5435133
-0.2971337 7.1081896 -2.3249176
-0.4684862 12.785773 -0.57962
-1.3895681 1.7757722 0.0912925
-1.1287088 2.8656 0.08055263
-0.6670649 5.6609154 -0.5496233
-1.615138 7.6244273 -2.4777977
2.0526123 -2.098868 1.285057
-1.6241485 4.4629264 1.2042532
-2.1040537 2.0969799 0.087362856
-0.6952476 12.455765 -0.47340304
-0.74267334 5.920299 1.7401966
-0.7604256 9.587765 0.30937508
-0.67351496 5.735127 0.7227101
-0.08147518 6.7878337 0.16400422
-1.1260104 9.341812 1.0463845
-1.7384542 2.6883647 -0.2651899
1.9149396 -1.9296201 0.75373745
1.7202665 -2.016176 1.0556177
-0.9080972 7.8951073 -2.570002
0.8515584 3.9260738 -0.24338341
-0.9472448 6.274381 0.33927462
0.54451084 6.959501 -0.33202478
-0.72465086 9.886652 0.029806482
-0.61510503 9.816217 1.5742035
0.5239874 3.9619162 0.068139814
-0.80666924 6.220537 -0.096957654
0.92872536 5.3286233 1.0722853
0.6696581 10.254808 0.6096968
0.689095 6.851717 0.073466234
0.7893389 0.034154512 0.38452554
0.37992027 8.04412 -3.9345388
1.0202551 3.5683603 -0.24600327
-1.0634267 8.104406 -0.22947396
0.4826571 2.3393247 -0.28768742
-0.65182126 11.217278 0.3273015
-1.5944605 5.300638 1.1204556
-0.71114784 8.320571 -0.26093715
0.28958058 9.631511 -0.057753265
-2.30676 -0.282692 0.22048643
-0.116360225 4.368634 0.020685079
0.4475592 8.383362 -3.1729667
1.395872 -0.14854367 0.8952122
1.7853101 0.40311864 0.13851872
-0.044055954 3.7937355 1.0378747
2.0175092 1.0614574 0.8615957
2.0815125 1.0733 0.4888645
1.4242624 10.1365 0.30803445
-0.39339733 5.7240753 0.41801146
-0.61192423 8.78184 -0.25911453
-0.6495546 3.6979735 0.55591017
-0.5399178 3.326948 -0.45853066
-1.3737242 6.354436 1.3826107
2.3825963 7.816245 0.14992887
-0.90742755 12.505737 0.6103158
-0.63484395 13.511947 0.8406684
-0.21996567 4.163461 -0.6136196
0.37779143 2.7229953 -0.38247508
1.1256198 2.4285138 0.89774084
1.2910589 5.1005006 -0.21194844
3.0742264 -4.5651274 -0.13899738
-0.5606096 3.677438 1.4426795
-1.1491456 3.6260977 1.1213281
1.1867518 4.1097035 1.283375
-0.85948586 9.750377 0.6379614
0.2998785 6.8564286 0.20737502
0.5883689 8.570453 0.50066245
-1.3546499 3.7439897 1.4641479
-0.7864764 2.111627 1.0316123
0.38791615 7.2704725 0.8989558
0.91352516 9.259653 0.99982256
0.6159347 5.5587287 0.92615414
-0.9839036 2.6346447 -0.22603707
-0.69082296 9.420823 1.6440465
1.3939186 4.7667274 1.0872769
0.14055033 6.401356 -0.5825951
1.5658082 9.287727 1.2476846
0.86510646 3.5998816 1.40826
-0.6164085 7.315125 -2.3629904
-2.1533654 -0.67689234 0.13742523
-2.2530267 -1.392507 1.2627649
-0.30076134 6.4905114 1.6797922
0.8146347 6.643571 -0.24465401
1.7666348 3.0891318 0.037879348
-1.9407476 3.8456843 0.7966988
1.0044765 8.281298 1.350494
-1.4765532 10.375983 1.3417389
-2.0176458 -2.9934046 1.2698668
2.243169 -1.6449233 1.2270588
-2.9751272 -4.5787153 -0.42506057
0.63270605 4.192632 1.6299759
-1.8673873 2.9463828 0.79652697
1.9424113 2.2327254 0.7102169
-0.13832726 9.62942 0.825567
0.51990455 6.437011 1.1087273
0.79946244 8.4819765 1.647064
-1.9694253 4.364539 0.29230288
-1.1070141 8.618031 1.1599978
0.61619276 3.947269 -0.6148517
1.4944345 4.380502 -0.100972466
-0.91062844 6.0867534 0.7185687
0.5203393 9.033079 -0.15762101
-0.38055572 3.2027392 0.07155411
1.729084 0.5101862 0.8304612
1.356508 1.8611828 0.37239778
-0.041418403 7.986852 -4.1593537
-0.5938288 4.6158676 0.6437667
0.30942374 10.040044 0.43570995
1.6427962 4.1577506 0.1485283
0.970257 7.5258923 -0.13873199
1.0959939 1.3298067 -0.3302422
0.19021678 11.79471 0.31943524
0.21085992 8.440773 -2.8842297
-1.767361 10.298226 0.8855445
0.5006535 9.996294 0.09212435
2.1735842 9.445835 0.9660247
2.0415194 -0.013216325 1.1294297
1.2226679 1.3266636 -0.014427642
2.532225 8.627686 0.48061797
-1.7519429 8.123611 0.8183052
-0.18470058 11.268608 0.40050694
-0.22636807 9.78898 1.5109032
-1.2632198 7.968713 1.5367942
-0.1353985 5.9695325 1.3452268
-2.3553498 9.604394 0.39197832
1.0891141 2.8220499 0.4837019
1.2839439 4.1192684 0.18718742
0.9425305 1.3432175 1.0445869
0.52288526 7.758477 -3.1648867
0.17457676 4.817414 1.0042788
-0.16136907 3.346563 -0.3244904
0.63641715 8.150274 -3.4036548
-0.07088627 3.455793 0.09159906
-0.098011434 13.409035 0.3609248
-1.328392 4.707278 -0.4448115
1.9314313 -1.0651392 1.4397087
-0.83038807 9.926068 1.232126
0.17850858 8.097794 -2.432118
-2.073219 -4.2707076 0.9436318
-0.73689836 6.4313374 1.7143363
-1.8613352 -0.8379925 1.2507079
1.405653 3.5843418 -0.3895989
-1.6035362 -1.3619888 1.051377
2.2358875 -2.564843 0.811933
-2.372477 9.185279 1.1795688
0.8350714 1.9152639 0.00588182
0.04924648 7.0680957 0.92533356
1.5446829 5.0443544 0.8257352
-2.539591 9.25139 0.44926754
-0.4847217 4.1849933 0.059230857
2.615053 -4.2465754 0.8739886
1.0084176 4.2402887 0.46562624
0.015285226 7.4917436 0.9399297
-1.7203465 3.1421618 1.0980533
1.8767049 2.624074 0.5874495
1.4648489 3.9813151 1.0605149
0.80812883 4.2514234 1.1325829
-0.039628424 4.480421 1.0618242
-0.2112416 7.9913893 -2.3125193
1.1723659 7.612743 -2.656589
0.72917193 4.426385 0.70138335
-2.327449 -0.3727617 0.9817507
-2.210019 0.7904849 0.5501261
-0.12695116 5.399749 0.46515417
-0.48938593 6.784614 1.8074718
2.27558 7.731575 0.5129107
2.561899 -4.58372 -0.6025911
-0.81853557 5.0479918 -0.26419747
-0.49825126 9.493521 0.6708167
-1.7882359 -0.7000712 0.25192878
-0.25637135 4.6213374 1.7625877
-2.7521796 8.581959 0.85985154
1.3781482 0.49848154 0.15606183
-2.6422758 -4.6182904 0.07708612
-2.5812683 -4.2132783 0.9397819
0.09469013 7.203714 -3.7154849
-1.6506394 3.7144842 0.20372625
-1.0349164 7.6553183 1.5256093
-0.69647986 12.377853 0.8833533
-1.4899325 4.068569 0.039534036
1.5295993 1.2303216 0.189678
0.36139032 7.103784 -2.5274265
-2.6439314 9.302654 0.91414714
0.033132695 3.2075648 0.7215465
-2.4198275 7.1565213 0.05948367
-0.02121985 13.152648 0.7168239
-0.4958983 10.5690565 0.25583985
1.8254609 1.7859247 0.011030463
1.2262821 6.117577 -0.015576838
-1.2510253 4.824979 -0.06642796
-1.5761071 7.418293 1.1075116
-1.5808231 9.436182 0.48461694
0.5202924 5.3103595 0.18105699
-0.7521082 8.407274 -3.3349462
0.62840235 8.4718075 1.2412753
0.7035938 3.416869 -0.6079625
-0.8580836 8.525853 0.47231036
0.4001532 13.039441 0.8859111
1.2933848 7.4532537 0.32751435
-0.31638563 5.290723 1.1029434
0.26189935 7.408967 1.2841953
-0.19811063 5.0009108 0.41182658
-1.4292789 5.053089 1.3531253
-0.95252955 5.830544 1.0981479
0.8778496 0.6772342 0.7510554
1.9272457 8.423574 0.85966223
0.28311074 4.5161004 -0.28838807
0.8589225 3.2409697 1.2312841
1.5719073 2.0719163 0.13128148
-1.1427108 5.175839 1.0994217
0.17255065 12.329528 -0.5564104
0.015856285 7.977564 0.46608815
1.8537341 3.0461712 0.46084654
-1.198624 2.1832685 0.97474426
0.4894283 3.0730205 -0.5361959
-0.02512922 5.5729313 1.1987499
-0.19646983 11.843739 -0.006365317
2.3176603 7.281974 -0.8635898
1.0931848 5.9223742 1.411539
0.26521605 2.7353656 1.2596372
-0.57046145 8.817161 0.49143383
-0.42824352 10.199283 1.4815034
-1.3329405 9.210313 0.6988051
-0.8131076 7.7381263 -3.5043168
-0.10528791 8.603012 1.2956411
-1.3330035 10.739453 1.2073463
-1.1347686 5.1117797 0.6633583
1.0963868 8.936755 1.0572398
-0.7218836 10.4566555 0.6537267
-0.5261518 4.899064 0.2925786
1.1435958 2.6482062 0.1922599
-1.6718458 4.1682925 0.9060564
-0.1499549 6.4725313 1.3192518
-0.59565276 8.455426 -2.9917846
-1.5467085 -0.6949098 0.5875736
1.5357697 5.573127 0.42873406
0.45071933 7.820016 -2.4404814
1.5356141 0.270964 1.2998912
1.0757753 2.6054747 1.2399873
0.15276426 8.645215 1.6612664
2.2090476 8.134109 0.22997184
-1.7979931 4.330374 -0.06784394
-1.4498894 4.71216 1.4003521
-1.6748087 5.669376 0.8501369
0.5723248 7.5874553 -3.506587
1.7898654 3.6256568 0.65989774
0.8113053 2.7527573 0.72889304
-0.89566797 8.361464 0.09618445
0.11086078 8.569343 -3.3230135
0.65460587 3.1091087 0.88473797
0.41928062 3.274544 0.6875134
-2.083295 2.8343499 0.2671003
-1.740178 8.708486 0.5838124
-0.07577048 6.280864 0.7159769
1.4932985 1.2181801 0.77124506
2.3128314 9.530955 0.6138472
-2.0052333 8.781694 0.3262755
2.1547945 -0.7509886 0.65997636
-0.48779923 13.036251 -0.052908063
0.3253739 12.64098 -0.34331977
-0.42088628 4.4717965 0.98345923
1.1516706 9.2520075 1.4320618
-0.83055025 6.228755 1.2975646
0.17013611 7.0406146 -0.13703333
-2.060968 7.502366 -1.6516044
-0.43969154 12.0983925 0.96621263
-0.23439027 7.140625 1.6353487
1.1240429 7.1433654 0.1611653
-0.4028569 7.208482 0.9559239
1.8519416 -1.81039 1.3500239
-0.5220443 9.64615 1.2383616
1.36763 4.072139 0.5815899
-0.9723744 4.067708 0.8914476
1.106296 9.182254 0.31656083
-0.1580335 12.014701 -0.6982009
1.729297 3.8780751 0.37199453
-2.2356336 8.503571 0.21593307
-0.73936284 4.5981803 1.3636056
-0.36473107 2.978095 -0.23114483
-1.8104314 5.4886255 0.47072688
0.47250158 4.621883 0.41541767
0.022145476 8.968029 0.09986141
0.41320127 12.545833 0.053451553
-0.68481314 6.188155 -0.5388255
-1.1429176 6.4060736 0.73183715
1.2850149 10.597703 1.0494474
0.17813174 7.964688 0.03760392
-0.1965292 5.384469 1.7097273
0.31039312 8.20466 0.6501705
0.47795305 3.819727 1.5627676
-0.8903541 10.497366 0.31828287
-2.229825 7.2657943 -0.37519044
-0.60319126 6.761257 -3.6750348
2.1299593 -4.316626 1.41455
-1.7259071 5.843144 0.14595303
0.16553591 12.888756 1.1638544
-1.559208 2.1621077 0.022029005
1.2247168 4.855838 0.16305098
-2.5785375 7.300465 0.47338024
2.4180121 9.07234 0.5139023
-1.1548423 3.7033656 -0.46817213
-0.035757832 6.8981967 0.57815826
-1.243277 0.7271188 1.2478471
1.2762908 0.6047813 0.5761309
-0.16929302 11.158456 -0.014773002
-0.5926599 3.276193 0.6620234
0.8948701 6.4154015 0.16926205
0.032912225 5.95752 0.9382875
0.5804051 1.3860056 1.0679548
-0.7937384 7.1350102 0.8242194
0.18724823 10.5009165 1.3794708
1.4338661 5.882176 0.21642902
-1.5821157 8.108768 0.21870431
-0.59654963 9.18369 0.527485
-2.2348554 -0.20812295 1.3033396
2.4210951 7.615623 -0.16490024
0.5698273 4.2129846 -0.23105125
1.4896245 1.690011 0.7285973
1.7948502 -0.97853553 1.0770596
-0.17182654 8.549879 -2.958268
2.2040942 -2.176762 0.7480697
0.28189293 13.570512 0.43379802
1.7052641 10.03648 0.7072442
0.03804177 6.663759 -2.8048434
-0.117782444 5.287521 0.039627895
-1.9235969 -0.3099875 0.054682147
-0.1331268 4.625056 -0.3195403
1.1128033 10.436028 0.4267877
0.22659738 7.557925 -3.7668602
-1.3131832 7.5297337 0.8130729
-0.5732181 10.227059 0.13403364
-0.25064936 9.164194 0.31107318
-0.42067182 8.085496 0.4963373
-0.11624016 6.5463743 -3.2142484
2.1473854 -2.7701986 1.1993978
-0.95260364 6.671571 0.3366387
-0.97218794 4.054423 -0.47503522
1.0228243 10.145321 1.0467908
1.3755063 8.928657 1.3209401
0.07189998 13.593567 0.75476545
-0.9812211 7.7347937 -2.8911903
0.5618388 8.4841585 0.082737565
1.1384952 8.819162 0.42906678
0.880582 5.5118155 0.3156618
0.8752372 6.796402 0.4356584
1.1047145 0.29195204 0.44904673
-0.37238795 9.353471 1.0499005
-1.8948559 2.3060281 -0.1750183
-2.14024 9.726105 0.7339564
-1.920272 -1.5267584 0.8656076
2.0393116 9.198123 0.6107748
-0.30320546 6.249473 1.0615511
-0.45473614 6.0615835 0.0851631
1.6974655 0.12591268 0.9289483
-0.6839245 1.5725732 0.44069818
0.09380491 7.638244 -0.39868477
-1.5756454 7.275008 -2.5576496
0.1438365 4.920801 -0.3838911
-2.0921595 3.540703 0.46285895
1.4381547 -0.09947232 1.2831943
0.73071325 8.331125 0.79499054
-1.785557 5.48537 0.06323812
-0.018407337 8.081503 -2.9029486
-0.595852 6.5733 1.3246747
1.5120764 1.8316574 1.0703596
-1.8733416 2.5909338 0.92044115
-2.2049608 1.1892744 1.1472149
-1.9442769 2.1701882 0.96816516
-1.3768711 7.5656104 1.4674923
1.1395235 1.8305373 0.9202669
-1.7420962 -0.8819887 1.6079531
0.980094 9.771562 1.1223946
-1.0367509 1.7876394 0.30884504
-2.6745257 -4.5428123 0.70435977
-0.64376444 6.0321736 1.0183959
-0.23857106 2.6152995 0.50109994
-0.34239632 4.531059 1.3475813
-0.7790403 8.789137 0.12506112
2.1359816 -4.3450828 0.9321681
-1.4121202 1.3835342 0.87233907
1.085277 -0.16583365 0.22881265
-0.42614463 7.7529445 -3.3594582
1.554144 -1.2427121 1.3715893
2.2888367 -1.9934089 1.0581583
-1.6556356 3.706189 0.6045937
1.3835999 10.65873 0.673232
-0.70553464 7.989073 -3.076749
-0.6706845 9.224879 1.2945048
-2.0600927 7.2167845 -1.4374413
0.123074494 5.206803 1.0872221
-0.5186273 4.983094 0.7136371
1.039479 8.030819 0.5830804
-1.941258 9.594133 0.2872284
-2.6503942 -4.3449535 -0.18557496
-0.735995 6.7792134 -2.9068801
2.2907617 -2.9496975 0.8676101
-0.91570234 3.3327942 -0.42385697
-1.6368706 1.5575751 1.1700568
-0.18121785 13.055734 0.27523732
-1.552864 -0.9006373 0.9936378
-0.09674339 6.141644 1.6359149
-2.2657094 8.7875 1.0523562
1.4935129 9.041007 0.95501554
1.0852276 9.614764 0.79111683
-1.9248399 1.2451261 -0.06847935
0.19397211 5.2109084 0.67283887
-0.5619915 5.3053803 1.4428831
-1.0139867 10.176603 0.16647218
1.7043793 3.4315777 -0.13256612
0.7774641 4.884382 1.5962361
-1.5291396 7.064094 1.1740583
-2.4203277 7.45905 -0.122533806
1.8878597 -1.319359 1.0435805
-0.3276801 10.600676 0.56257415
-0.74627674 3.6719918 -0.5379169
-0.13565537 11.091887 0.9521718
0.18666895 5.5612936 0.8330607
0.41765508 10.122338 1.5072095
0.8207517 8.04786 1.0363326
-0.15793563 12.912626 -0.22102788
-0.02675714 4.1842427 0.38123026
1.0448921 0.67628366 0.28123653
-0.50718945 4.3327885 1.6444358
1.6074418 5.219584 0.49625918
0.8321704 4.5079136 -0.30553392
-0.2977002 12.316349 0.07388004
-0.6203677 8.320011 0.7617068
-2.3449876 8.375944 0.91050607
0.21535002 10.334903 0.19723167
-0.81671065 12.259538 0.31518036
0.1474521 11.06081 0.2531892
1.563234 -1.5961695 1.2349217
-1.1429317 8.782727 0.19969596
-1.1928315 7.2211814 0.14988357
-1.1790088 7.891145 0.86552703
-0.21949004 13.458616 1.012529
-0.52238685 7.9550185 1.7742406
-0.45030993 11.421181 0.087709084
0.1431131 6.3935695 0.16177273
-0.49800617 5.3676386 0.658568
-0.009204604 10.144575 1.4215726
0.14017129 10.578032 0.9467924
0.97476685 3.8770177 0.160852
0.16316889 6.4360175 1.6728433
-0.18552338 10.361874 0.14810579
0.7586215 7.708188 -2.789756
-0.25266847 6.565195 0.4648284
1.3790736 3.0977955 0.652294
-0.48054588 8.44091 0.3443501
-1.6962212 6.781292 0.92844284
-0.9910829 1.8512822 1.215955
-0.012236708 2.9033606 0.40224838
-0.058714777 10.739322 0.22134373
-1.8592095 -1.1280164 0.92724043
-0.093917355 7.133621 -4.13436
-0.35721645 5.829038 1.7520329
-0.6329013 4.2558866 0.7503501
0.5907511 3.6983075 -0.3037343
0.9783047 7.3965626 -3.317384
-1.9676684 10.611349 0.760778
0.21727121 4.7152276 0.023599887
-1.8481867 -0.36814654 1.2188001
1.516069 10.2922535 1.1705714
0.8372449 7.474773 -3.6856165
0.6820563 10.327283 1.056707
-0.4209893 10.868443 1.208972
2.03965 8.534844 0.18073873
0.57051706 4.9128685 0.1384488
1.3330473 4.484052 0.40205038
0.7533342 4.260365 0.19763817
0.24177307 7.638467 0.6455055
-1.8212214 9.1246605 0.33268943
1.8692981 9.57333 1.1586757
0.87716115 7.4385324 0.22525449
0.8579327 7.8997064 -0.21340996
0.108762085 11.275218 0.7088779
-1.8301233 3.5287418 1.000248
-2.9198246 -4.5947137 0.39716074
0.7924582 3.4780369 0.5241594
0.35907444 2.885611 0.13180317
-0.8698414 7.5532417 0.8426118
0.14325906 12.4895525 1.0924894
0.92754704 -0.0060108486 0.7201998
1.51505 2.8521469 0.36800784
0.06833262 5.9929824 -0.62434936
0.26505694 7.026409 -3.995061
-1.1769499 8.150861 0.5433425
-2.0914335 -3.5223467 0.8745646
-1.2837096 9.469155 0.0017136014
0.54912263 3.7063477 0.77007276
-0.7808706 7.1528664 -3.1335764
-1.4085567 3.0774038 1.2874452
0.87156117 3.510938 0.92493427
-1.440181 -0.6371508 1.312851
-0.43786964 9.85166 0.4251991
0.25361237 3.1415303 1.4045979
-0.7857502 7.2818537 1.1637313
-0.37776896 6.6144953 -2.9182363
1.5099005 -0.19473249 0.27467665
1.3091868 -0.47243398 0.07512829
0.7452384 8.909699 0.24146235
-1.5265927 4.487417 0.16225581
1.1698406 3.4177196 0.50263697
1.5941097 7.249204 -1.6603124
-1.8041052 1.9391117 -0.21616822
-1.4868203 3.2551296 0.03403318
0.22644734 5.846354 1.3161316
-2.0003448 -2.694428 0.9315256
1.2929363 2.167463 -0.42128965
-2.5630724 8.503923 1.1718509
1.0185949 1.0881155 0.1762059
-0.07673785 6.261023 -0.30082121
2.316041 7.3170476 0.19543199
-0.27903435 6.2044106 -0.6181462
0.2847975 4.3001156 0.1031911
1.776188 9.340448 0.32254982
-1.6416098 6.474781 0.6321163
-0.15218462 5.686964 0.13049261
-1.9171407 4.0303764 0.12434789
-0.98474824 12.950992 0.6624807
-0.7464887 4.4650235 -0.602753
0.5029322 6.0604615 -0.521519
-3.0208855 -4.566667 -0.0234579
0.59851116 9.917279 1.2229706
0.99165154 3.1446116 0.7445397
-1.8934368 -2.0559723 1.3748617
-1.1883076 3.968497 1.1852587
1.7160004 9.30811 0.8055181
-2.28921 10.380939 0.61521155
-0.99989355 9.749743 1.6182153
-0.22712812 6.445895 0.059602927
-1.8953029 8.318234 0.4452639
-0.8988254 8.494539 1.5557148
0.9631693 8.559467 1.0229614
0.42179742 7.5405726 -2.7588458
0.38650933 7.8784957 0.35519478
0.22557051 2.1486862 0.38445246
-1.5191156 -1.1118127 1.3596992
-1.0839599 10.289652 0.6853789
0.53975695 9.214515 0.94587624
1.4429595 9.665058 1.3278654
-2.2904701 -0.6466109 1.2618016
2.1214828 -4.0392704 0.6417652
-0.86801386 12.816278 0.004697508
-0.28268322 7.6638584 -2.9764287
1.7336783 1.211441 0.50349206
-0.052232843 9.981573 0.70653963
1.2316513 2.909245 -0.4908193
2.645014 7.093689 0.33595997
-0.32288355 3.9846616 1.4397476
0.10027683 4.022839 0.74885577
-0.13732466 10.103623 0.35327962
1.2066307 3.965832 -0.49172986
0.3860114 5.855693 0.61914134
1.7050233 8.571286 0.5450949
1.4257909 9.400947 0.15874173
-0.017213622 4.969757 1.7047355
-0.4506943 12.012116 0.2900631
1.034229 7.349224 -2.9218771
-0.808216 2.2257125 -0.15598184
1.4401757 3.6729376 0.64592034
-1.7329599 5.870911 0.52984166
1.7188824 3.2881496 0.7305721
0.27772075 8.740844 -0.19818212
2.3825715 8.542386 0.1650837
-0.15229382 8.814705 -0.21032126
-1.8130102 9.953068 0.3627997
1.5637335 2.4981952 0.16921987
-1.5175643 8.133422 1.1972789
-1.7863998 7.349724 -2.2596183
-1.548104 4.8846126 0.23157257
-0.63974 12.112269 0.61960167
-2.2075913 10.392059 1.017408
1.0009227 6.4290404 0.54719466
2.0515432 -4.627142 1.2365221
-1.1601913 8.562097 0.6946878
0.9375326 8.132005 0.19644856
0.45599148 4.081011 0.8655626
1.7263837 2.7120829 -0.14904484
0.96287197 2.4022968 0.56564003
-0.32599393 5.6081696 1.4252235
-0.08351176 4.299904 1.482047
-1.1807003 8.811813 1.5740906
2.1572957 -0.7751424 1.2471541
1.67669 -0.4319386 -0.0072420114
0.7300507 9.100973 1.338832
-2.250506 -3.831145 0.50501204
-0.3727028 3.7396665 -0.5082995
-0.6802135 7.4294767 -0.3949932
-1.2167101 7.769173 -3.5599697
-2.4197013 -4.186277 1.3053669
-0.25662172 3.8814602 0.21964262
2.1302898 -3.1469266 1.1384767
-2.259721 -1.8973466 1.2186872
-0.08847888 7.000135 -0.5175389
-0.4807346 6.1555777 1.4309093
0.19162132 13.000936 -0.43412277
1.064626 7.61629 0.5996445
1.7717117 -0.27467442 1.0001388
0.75044024 9.497467 1.263296
0.5536696 12.888723 0.59277207
-0.6833155 7.6255107 -4.1107006
-1.6853648 -0.47481975 1.5855888
0.19329534 9.780305 1.5193075
1.8682113 2.7132857 0.20044635
0.81424385 9.194202 0.6088926
-0.310133 8.234779 -3.9861104
-0.95486134 4.27153 1.3039691
-0.37977755 3.6248484 -0.122361876
1.5868974 4.6588354 0.76746356
0.4982893 8.229656 -2.6745949
-0.8933855 4.401276 1.6678133
-1.016469 1.8526124 -0.1626663
0.501606 5.1504607 -0.5818602
-1.3224334 3.030535 0.39516264
-0.31734288 9.388736 1.5207566
1.0303296 4.185651 -0.116887815
-0.5230955 6.2614784 0.6168798
-2.2149262 1.2016324 0.63493454
-2.2311862 7.5110383 -0.83021355
-1.4152479 1.7501054 0.5081538
-0.17962384 13.025379 -0.59734935
-1.6289048 6.836534 0.5219414
0.3604347 7.945517 -2.8153148
-0.6672325 3.9272716 -0.21634643
-0.8987129 2.9660869 0.41744152
-1.3496921 5.966744 0.15724057
-1.1789842 3.2263587 1.0261911
-1.7970387 5.2580557 0.80066687
1.4380761 2.5122573 0.5588691
-0.6350032 7.7315674 0.43466705
1.4488304 8.256662 0.67438465
2.5956774 7.810418 0.6803789
-1.8662091 0.28243083 0.3086756
0.7109715 8.700179 -0.20657228
2.3692496 -3.4549904 0.93661237
-2.0043154 1.7813377 1.0569726
1.0667549 0.55378115 -0.12853372
-0.0098577095 11.6988735 0.6840555
0.78024995 4.965469 1.1576978
0.30146196 6.209083 -0.20348501
-1.4808376 6.5825467 -0.14291717
-1.4989643 4.1013985 1.3300138
0.7865338 7.7858844 0.34679976
0.78781015 5.768804 0.6384768
-0.05993134 7.845976 -3.312919
-2.3187125 -0.29632914 0.60414696
0.27512756 4.199382 1.6535256
-1.1357992 3.9803278 -0.110383585
0.6576883 7.4273214 -3.1197948
0.14939019 12.835215 0.07560246
0.21849844 11.420245 0.3787989
