0.84806526 5.67325 -0.0014026591
-0.65631735 3.728075 0.20647126
-1.1011981 11.020788 0.7152747
-0.54971397 8.197329 1.3954124
1.5297759 4.4091377 0.89237654
-0.7343466 5.489299 1.3628051
-0.6376934 2.6169457 0.6687479
-0.5856942 12.772528 0.49001998
1.2778563 8.460285 1.2966456
-2.4918027 10.101364 0.33884054
-0.7887511 10.066091 0.2926162
0.85685205 2.8782592 -0.42710388
0.9437045 3.9290862 1.4858084
-2.21175 1.6239505 0.7593825
-0.5716269 4.685808 1.808063
-0.5997664 7.2688 1.7525542
-2.080058 0.93277097 0.31098247
-0.5414165 6.4715242 1.0562923
-0.4575464 4.5562344 0.02493069
0.42191434 10.995779 0.4188953
-0.4373991 13.114725 0.37434322
2.1707592 8.849014 0.20161477
-0.48456156 4.936823 -0.58355546
-1.284097 9.756887 1.3725772
1.1168811 7.42144 0.802093
2.0250416 0.66631544 1.0709846
-2.9293985 8.835735 0.61670613
-0.11403103 9.11553 0.60694194
0.80735075 9.827826 1.4539723
-1.790683 0.6689594 0.4549101
1.7540016 2.4841084 0.85805595
1.4280384 2.2360926 0.6956332
0.8218019 2.671452 -0.048837185
2.084352 6.1545887 -1.1145375
-1.2650435 4.796933 1.0642269
-1.2087686 -0.17604935 1.1091685
0.8594872 1.9794431 0.86558354
-1.9203289 0.2948423 -0.11268614
-0.25793314 5.701892 -0.19378158
-2.5859113 7.030204 -1.4946399
-1.359987 8.280617 -0.17700487
-1.8325791 1.9192495 0.5828849
0.8514918 1.795903 0.25326484
2.3637133 8.104174 1.1976895
1.4710894 2.2176037 -0.01621224
1.6532669 2.0409284 -0.3034982
-3.951613 7.088682 -1.5735312
-0.3408234 8.968264 1.1957998
0.6386322 10.791761 1.0254703
2.7956352 -4.6182985 0.640512
-0.71853423 2.4043908 0.35357666
1.1875021 -0.74342704 0.9333428
-0.877931 8.143509 0.42970526
-0.6398171 11.549948 0.0166769
0.983058 3.421266 0.17898458
0.8821356 3.760507 -0.56158316
-3.540472 7.1054163 -2.8759909
1.4455273 0.9259894 0.49935406
0.15762588 10.807051 1.0388651
0.57474625 4.320545 0.49313307
1.3511171 9.3304405 0.5352634
-1.8528898 0.59865093 1.3424037
-1.1679025 2.194322 0.46868408
-0.61864924 9.174042 0.0827557
-2.2995481 -4.599392 -0.08512463
-2.1795082 -4.6292076 1.6845837
-1.7941976 -0.24603075 1.1217003
-0.7368275 4.508748 -0.5656731
-0.91770554 8.930805 -0.24059722
1.1279659 5.601962 0.91559684
1.0807786 6.37924 1.4635463
0.8005204 6.119173 0.012413325
-2.495192 -4.585167 -0.47349823
-1.6977952 9.593004 1.1249166
-2.4897122 10.222153 0.6954429
-1.3479872 3.5407863 0.8444146
-0.18931529 6.967369 -0.09071559
-0.44094634 7.6363974 1.7579589
-4.6126833 6.4241905 -1.6142111
-2.8270535 7.575469 -2.0242877
-3.0296407 7.549735 -1.6558826
-1.3611529 9.651478 0.90729904
0.6278577 6.619322 0.36902004
-0.6692494 4.035651 1.6515679
2.4677062 -4.2356796 -0.0767014
1.246716 8.245663 -0.022358976
0.20176569 8.13522 -0.21112776
-0.30686665 5.0423546 1.8278968
-1.225451 1.2610674 -0.1656712
-1.9679141 -3.5408397 0.9439715
-1.6355064 0.7700211 0.7844242
-0.44106442 5.625985 1.1154985
-1.353502 0.5732578 -0.05241587
0.76787627 6.46354 1.6455014
1.445039 8.276041 0.31820226
0.18245551 9.069759 1.6473405
1.6218362 -0.054676995 0.24951747
2.144484 0.30993444 0.53830945
0.7055993 7.00156 0.55047
-1.791436 3.301371 -0.123560846
-0.97481465 9.22357 0.27099103
0.7346026 7.408639 0.5724268
0.9193208 8.349306 -0.13535869
0.54528904 9.57921 1.571492
0.55744815 4.8610287 1.015321
1.7481713 0.15205741 0.5156021
2.3335228 -4.6251745 0.57477033
0.5826392 8.369703 1.6061461
-1.0520573 9.418007 1.5034723
-1.130192 4.501568 0.32114977
1.5422966 4.0460014 -0.2571143
0.92580175 0.8375608 -0.00932534
1.9052005 9.580747 0.64817524
-3.2175002 6.9276505 -3.0013895
0.2333574 8.848785 1.3199284
-0.17840844 4.2931557 0.7634251
-0.084288776 10.669991 0.7291521
-0.34543175 12.506725 -0.48170847
-1.2107129 2.859661 -0.3443269
-3.015934 6.7921677 -0.9817407
-1.8470759 9.6527195 0.7710314
0.7556305 8.8302765 0.8701148
2.3997035 -4.591942 -0.3179528
-0.58109 13.469673 -0.34042054
-1.1263211 2.4195375 -0.29891062
-1.4922366 7.9440937 0.44087166
-0.30806583 9.910776 -0.13718507
0.960243 5.933484 0.3301232
1.1461041 4.7216854 -0.3912949
-0.9394758 7.201145 -0.25837392
0.32751006 4.6407976 1.4152133
-0.41102564 13.517294 0.41807926
-2.5635428 8.7355385 0.7378143
-0.10179517 7.6895466 0.71285284
-1.080169 0.19418353 0.922523
0.052452132 9.432421 0.08130777
-1.9064903 -0.54845023 0.8511406
-1.3966541 4.0808506 -0.36435318
3.0402718 -4.5995817 -0.59760857
-1.2972736 5.203972 0.9289768
2.4273267 -4.6150665 1.376585
-2.2381716 -2.77887 1.0072742
-0.7475836 12.668608 0.8488314
2.5895996 -4.5982876 1.0023592
-0.71373415 5.056452 1.7954032
-0.43014336 12.066067 -0.8646462
0.6819633 2.1209722 1.2535594
-0.74393284 7.9710655 0.7888237
-3.7855124 6.507393 -2.6785483
0.9146404 9.003302 1.5254784
-0.59983575 5.9187746 0.48419803
-0.9115095 5.396242 1.7011046
1.5462124 8.378702 0.9744972
-1.3954749 5.115834 0.19373071
1.0878623 7.416147 1.1998773
1.9317303 -1.068933 0.5752264
-2.763535 6.4989405 -1.1583991
-3.3733053 6.012249 -1.9457564
-2.2234259 9.6743145 0.961789
0.14598203 2.5236216 0.3364066
0.5780244 5.2524014 1.0210135
1.4452963 3.481042 0.11241251
1.7543557 4.3745365 0.5309478
-0.96527135 4.7251167 1.6996934
0.0888896 5.226697 1.4988139
-2.1097488 9.486786 0.16040969
-1.400089 9.087833 0.28999406
-0.24753582 7.609791 -0.38573158
0.47143584 4.5173216 1.0413022
2.155696 -4.5964117 0.94686425
-2.7923918 7.4390535 -2.8757215
0.0032564178 8.971289 0.9528417
-0.5486524 7.1813097 0.018766182
0.54522836 6.820689 1.6119576
1.1847961 9.992468 0.42573327
-0.5012754 2.5881839 1.0867438
-2.1406593 -4.3085384 0.56142473
-1.2976792 7.617731 0.1955949
2.5038996 -4.2435474 1.2366099
0.15424031 5.777047 -0.26024967
-1.4568331 -0.047228783 0.093820885
-3.9953117 6.4867163 -1.9509773
-2.3412428 -4.2570724 0.13544127
0.36728185 12.124943 -0.41299134
1.1248009 6.9918375 0.83452857
-0.21166888 4.1589613 1.1000082
1.5101495 1.7997415 0.014749257
0.3041544 5.1155815 0.38444936
-0.34806764 3.4536695 1.3054192
-1.3991299 0.5051563 0.44144654
2.1429043 1.5332155 0.5887009
2.0655713 8.980854 1.1893277
-1.605233 7.908737 0.8521179
-0.74834394 10.228607 1.3596134
2.8555193 -4.2840996 0.033885255
0.10375039 9.959459 -0.081637666
-1.497107 0.9586624 -0.23933217
-0.0988134 5.1090307 0.80935705
2.8432927 -4.5421305 -0.8875928
-2.9760132 6.0137415 -2.0855603
-0.3873272 10.272959 0.3929988
-0.7755313 7.633507 1.5886545
-2.7601352 7.482955 -2.4119186
1.9940445 1.8089707 0.81571186
-1.4853699 8.925858 0.7296603
-3.6648026 6.759598 -1.7551961
-4.041065 7.14167 -1.9525516
0.73357654 2.537047 1.3408542
-1.1866071 8.443251 0.10965413
0.4965294 4.2283554 1.353576
-0.5291245 11.653986 -0.3955496
1.0314133 0.98387146 0.39494103
1.4280221 -1.0787914 1.1049881
-0.122386515 12.60519 -0.8011863
-3.120729 7.512741 -2.3169928
-0.5007025 10.742125 0.6361109
-0.18261811 12.706438 0.31844515
-4.073042 7.102421 -2.3809085
0.5394136 7.8364773 -0.1693011
0.9374794 4.642708 0.40762866
1.0224528 1.8881865 1.2889485
-0.8791686 0.8869804 0.31298047
2.2350125 0.66970515 0.70817673
2.6556983 7.3068104 1.165622
-1.9774725 3.1207361 0.21656492
1.1918793 2.8829217 -0.10712184
-1.438345 10.056723 0.4702298
1.6145017 -1.7788789 0.9976349
0.2018494 7.794899 1.0221028
-0.7882508 10.906996 0.9904077
-0.25063545 3.2069874 1.0551555
-1.1806233 -0.43746167 0.5742011
1.3892508 6.7818775 0.58123565
-2.072454 7.341851 -2.0843277
1.6524346 9.3664875 0.7994117
0.38535988 13.308889 -0.3545848
1.4061549 5.314865 1.127145
-1.2884893 10.507536 0.74367726
-3.3382626 8.416748 0.9328754
-1.8223124 4.9934072 0.60567343
-0.8971305 7.078062 1.1857121
1.754786 5.7740517 -1.7452877
-0.06132725 3.0375366 0.3629728
-0.15832809 4.6790943 0.7460853
1.0642762 8.351694 0.2866729
-2.5010586 6.5615234 -2.120853
-1.8389752 -2.1477242 0.93290627
-0.5737518 12.785215 0.1204125
-1.1180973 1.3786681 1.0857573
-3.1128874 6.424716 -1.9544644
-0.7125071 5.05134 1.4410217
1.2870085 0.4063828 1.2019486
1.9279749 9.994217 0.18291587
2.623272 -3.9124012 0.61981225
1.4763975 3.7325463 0.42697603
-0.9055158 5.7220325 0.20050454
1.3402798 1.314167 0.45940125
1.5514176 -0.55178833 0.8237126
-0.06872441 5.816783 1.1561437
1.5813985 5.996108 0.66373646
1.8802822 8.887045 0.41507626
-1.4783797 -0.17497498 1.3676693
0.69052386 2.1546001 0.50740874
0.35673743 4.8082457 -0.6056982
-0.56557786 6.691824 0.6670182
-1.544369 0.43691337 1.4803584
1.7692485 -1.5175345 0.6952603
0.68419313 7.420167 1.2883732
-0.8380147 7.8543644 0.101749286
3.0119095 -4.6118574 0.1981546
-1.1102397 9.834698 0.34333026
-1.617805 2.1176057 0.3054831
-0.09809491 10.530384 1.180131
0.6125866 1.9129739 -0.08481547
-1.3502462 5.6356544 0.74080527
-0.30907786 7.1293297 0.33319992
0.4913695 1.4356658 0.42571008
0.78315234 10.528267 0.71711564
-1.3532195 1.6952507 0.89246213
0.90985644 2.0526366 -0.28830606
-0.7852042 6.4891815 0.05546221
2.7489138 -4.3698034 -0.406231
0.20005313 4.0234833 1.5417902
-0.3169104 7.010415 0.70494235
-0.0074597015 12.076494 -0.19392838
0.635615 1.511225 0.04112745
-0.49700856 6.252305 -0.15255663
-1.5675192 1.2152586 0.1436679
0.5918671 12.949331 0.24724534
0.47336578 5.0600634 1.4143627
1.2564561 0.98426056 -0.25843555
0.64885557 10.350203 0.1335389
-0.06866133 13.550438 0.50484824
-1.6831017 2.416574 0.9393097
-1.3958452 1.8053696 0.4959342
0.7810143 9.37781 0.17696017
-1.0763459 6.309325 1.0464983
-2.8285375 6.772936 -1.9687018
-4.3497 6.9229183 -0.5099673
0.4458897 5.498335 1.4030948
-1.0751598 0.59523463 0.21972257
-2.5937996 6.7742863 -2.8794627
-0.4866563 6.77691 0.28222454
0.90073836 4.2209616 -0.5092983
-0.28608626 7.84562 1.3446443
1.1465969 8.654039 -0.06926368
0.9407495 6.3233414 -0.29982442
1.0797 4.606575 1.5445049
-1.2187023 4.457365 0.7203016
0.849435 3.1934967 0.54856193
0.1485675 5.739312 0.47368807
0.11721203 4.1536236 -0.23276094
0.41103458 6.314419 0.7185558
0.63288784 3.132349 1.3921425
-1.138762 3.364163 1.4818361
-1.2464144 3.4513178 -0.04153265
1.1617477 7.81853 0.8477261
0.0030993544 3.6825905 0.5110916
-3.7843652 7.3678055 -1.404377
0.2303023 7.7978287 1.7770503
0.4942947 5.596277 -0.14543322
0.551635 7.787225 1.2430232
0.16086528 13.533777 -0.08055
-2.0992818 6.8180275 -1.6130972
1.8771613 -0.13065463 1.3537555
-0.44150692 6.135275 1.8037634
-1.0594139 5.5364056 1.0629685
-1.6073647 1.3520536 -0.23792517
-1.2824142 9.475489 0.24278623
1.5674477 8.768118 1.0734549
-3.7277093 8.238573 0.8599465
-0.7993784 11.075796 0.5227809
0.6870885 4.6366386 1.3958416
-1.988442 0.5658548 0.8984345
-0.5165442 5.603339 0.1536426
-1.1339538 5.906039 0.96527946
2.3193927 -1.5234158 0.86010873
-0.60669386 1.8751082 0.77959454
-0.22415125 6.9122076 1.23491
-0.6444038 5.1921015 0.18411288
-3.2037587 7.6670313 -1.9837873
-0.65706754 7.429246 0.3729955
-1.1745706 2.619244 1.3495286
-3.7972298 6.4218435 -1.5932081
-0.6055323 9.514202 0.8511479
0.16370109 10.368666 0.8875166
-1.7918382 4.6150646 0.8042933
-0.24835202 7.1815805 -0.42102438
0.03595411 10.430616 0.41413945
-2.7468195 6.3980055 -1.8188198
-1.4548504 3.262722 -0.33492684
-1.7281902 1.969882 1.0096836
-2.2447662 -0.77178156 0.9075731
-1.009592 1.0018687 1.1444747
0.21468279 9.346418 0.8296987
-0.44185066 10.862623 -0.057997324
0.59504914 7.656399 0.19846365
0.14283028 13.11713 -0.15410388
-2.07552 2.9263258 0.5356314
-2.9750018 7.9320564 -2.3338418
-1.7120066 7.769904 0.08727583
-1.2799704 4.85832 -0.36450237
-0.4656595 12.423376 0.28426367
1.3208957 3.4617066 0.89638996
-1.8834436 2.5176697 -0.13374382
-0.88121045 3.8648252 0.5149826
1.2532744 5.7026606 0.5682336
-1.0457771 9.893686 0.71908355
-1.1897392 8.393309 1.0574925
0.16285828 3.3493652 -0.370027
-0.50189686 13.567677 0.024588952
-1.008534 5.7734156 1.582351
0.9177668 1.6415553 -0.21283972
-0.057974704 9.200264 1.3367219
-0.9937773 4.732832 1.3066444
-1.7255943 7.572016 0.6800734
1.1348331 8.280352 0.89254475
-1.1651762 6.1605864 1.4296062
-0.905633 4.628064 -0.13357207
0.5434061 8.162689 1.2565587
0.20953912 13.019917 0.22280198
-0.3522995 4.9411116 0.06719959
-1.0933516 9.935541 1.099376
-1.2417958 6.4853945 0.5189197
0.8403207 9.740366 -0.07420406
1.540204 3.2534938 -0.33158755
-1.4430544 8.253918 0.75826
0.35143238 10.64641 0.22024405
0.63790464 1.093401 0.2075851
-1.4075215 1.1944845 1.2964375
2.577581 8.427359 1.0956125
-0.07614501 9.6113205 -0.20006311
1.0889366 7.1727095 0.47969985
-0.07889044 7.626254 1.6202908
2.1893907 -0.3735109 0.40471774
2.1291394 -1.8013732 0.6370444
1.5278435 3.061727 0.050174944
-2.758007 9.850954 0.54738104
-1.4356239 9.831472 0.063718304
-0.94280565 7.2932816 1.5278125
-0.80285823 3.8644047 1.2119305
-2.109079 0.2809072 0.27619278
0.02926512 12.341387 0.50179625
-0.035115607 9.746315 0.3133741
-4.2918367 6.8342037 -2.134797
-1.5472806 0.053619817 0.9746295
-0.24694723 6.751277 -0.4905216
-0.4268751 2.4585333 -0.04595951
-1.9586444 0.20990968 1.0774567
0.21988067 7.517206 0.03575691
-0.68827 10.133787 0.6861062
-1.6143909 0.87067723 1.1726754
-3.756425 8.1866 0.46187413
1.1547265 7.0051622 1.2404468
-0.48987114 11.87352 0.6565883
0.7114334 5.3085737 1.700508
-0.37964755 2.8584485 0.48895925
-2.2388525 7.047456 -1.3385804
-0.28682864 2.488234 0.33647984
2.088903 1.4912243 0.25377423
0.44035828 1.8184671 0.2857411
2.4424114 8.875116 1.0266753
-0.08190988 4.8741837 -0.63008475
1.7464528 2.1092196 1.0125659
-2.9995432 6.8850355 -1.3009088
-4.3327703 7.691864 -0.038386047
-1.7158484 7.560853 0.36991537
-0.67592907 11.973085 -0.5982506
-0.92608297 10.655008 0.7116438
-1.3674412 -0.5470917 1.199966
2.4378624 7.1314907 0.070526086
1.663352 0.48629373 1.1160748
-0.39346933 7.4257956 0.6607045
1.1762025 7.2248774 -0.011659887
0.3112747 5.3847723 1.8060584
0.6308024 8.144972 0.12187539
0.026584402 4.84789 1.5129344
-1.9948246 0.6353643 0.08068444
-1.1183758 2.2225723 1.3274195
-2.173633 -1.1394503 0.78672326
-1.0520055 3.7604842 0.8519615
-0.3348189 8.027018 0.6827704
-0.45904577 8.597946 1.0028582
-1.6394906 10.646074 0.91939473
-2.7526822 7.156082 -1.8666782
0.3895114 8.924112 0.9041648
2.0978565 -3.9120598 0.7282543
0.6993573 3.851183 1.2071049
0.50572383 6.394887 -0.02469232
-1.9472888 3.5140033 0.18106109
-4.316042 7.322446 0.0865138
-1.7117944 1.1022835 0.50540006
0.9488181 8.552959 0.6243315
0.92454183 5.656842 1.6041923
1.171345 0.02560576 1.031107
-1.0634167 3.0490441 0.039820567
-1.3131726 6.950264 1.1091309
-1.8671212 10.460587 0.28509855
-3.5920978 6.191991 -2.5571604
0.102660835 9.615517 1.1692977
-0.7089016 12.686039 -0.5281006
-1.5510352 0.823084 0.18136054
-0.92167854 6.683036 1.166395
0.14916977 5.787366 1.8677089
1.0265598 7.260701 1.5255127
2.3991518 6.946677 0.4719085
1.3755221 -0.1779049 0.5855856
-0.18178016 11.608364 -0.9540999
0.014303619 3.5795484 -0.09657207
-0.1597904 6.1136665 0.4433893
0.37271088 7.147256 0.72858274
1.2450836 5.2831144 0.7155343
-2.130334 8.665045 0.58056676
-0.49544847 13.096752 -0.56999594
-1.3496349 5.4907217 0.3856861
0.94471323 2.9970512 0.17158121
1.514286 2.7850509 1.1015408
-0.51491714 7.607917 0.026688758
0.57141507 13.059341 -0.13410941
-0.15723288 8.460869 1.6040719
-1.4715657 3.416697 1.2249849
1.2284677 9.809917 0.02075398
2.059505 -0.7260512 0.26222414
-0.8533499 6.935487 0.088962674
-0.55943143 11.410566 0.41447002
-2.099341 9.511223 0.52562463
-2.8427792 9.03643 0.975397
0.488707 7.4325676 -0.2495791
0.9887408 7.818676 1.2478721
-0.22705343 7.533782 0.31944448
-0.6751343 4.867816 1.0442507
1.0451739 5.2492228 0.067605
-1.0414803 2.6256237 0.624076
-0.8981091 12.488695 0.21855137
-1.0301282 4.0997047 -0.46387076
1.2608595 3.142827 0.3212052
0.44801098 1.7926896 0.68451667
0.75016254 7.606784 0.9393741
-4.4073544 6.8041954 -0.86111104
2.269916 -3.9466915 0.36413628
-1.7089603 7.176469 0.56790626
2.866022 7.5884466 1.0144994
-0.7713603 1.254924 0.898419
-2.4138174 -4.5994244 1.2887957
1.5342851 6.399227 0.84034085
-1.5646067 -0.7932005 0.8525599
-0.3281477 12.500145 0.6542436
0.8708943 2.8701677 1.2096486
-3.9305458 7.3939276 0.39967328
-1.7582223 8.90188 0.4648018
0.7253649 9.835285 0.3268214
-2.167111 10.271677 0.20028915
0.15970656 9.482977 1.5550334
-0.8262719 8.518284 1.1593597
-2.5605993 -3.9421482 0.7436414
-1.4513757 6.4596767 0.9677774
1.5775578 5.5405827 0.7793753
0.053366557 10.847055 0.4173318
-0.8311118 3.4649692 -0.10429907
0.5475167 2.5511699 0.59473
-1.8264604 -1.5878811 1.4541726
-0.23781845 13.416492 -0.5779159
2.04571 10.219307 0.4577049
-0.98954964 5.757827 0.6018107
1.087394 0.7424954 1.1321251
0.22880289 4.8152714 0.7518327
-1.3845923 7.9894753 1.1582851
-4.2269297 7.2371883 -0.56323636
1.6313415 0.9359882 0.16881189
-0.2153584 8.802153 0.354829
0.39331043 2.437417 1.1754575
-0.9406713 9.195694 1.21404
0.11268255 3.9186902 0.12763745
-0.6810857 5.262949 -0.4611621
-1.9261932 9.9313755 1.0555465
-0.17049772 8.262693 1.2590699
-0.76082385 4.2689037 -0.18996641
0.22118142 12.642691 0.28328186
2.8579836 7.4084806 0.5833663
-2.112064 -0.052608706 0.07194261
0.9348464 8.085663 1.5395706
0.6691947 2.8664365 0.36747056
0.45128036 5.5105 0.6331303
-0.55518746 3.0630946 1.2304435
-3.1654673 8.02648 -2.047225
-0.5298042 5.8908634 1.4604709
0.7427422 6.493187 0.7388822
-0.15174708 7.9451065 0.3357631
-1.9133067 4.6055794 0.43119943
2.3309388 7.8733864 0.85658014
1.9113116 8.59536 1.0200498
1.3522472 3.798523 1.2879596
-0.17121884 11.85697 -0.52102804
-1.6550369 9.964178 0.7979423
-0.00073416287 5.5781584 0.82016385
1.1779377 1.5637066 0.0952328
-0.32793713 2.892313 0.87324417
-1.0535762 0.61239135 0.94119835
1.4701676 7.192113 0.60236216
-3.0742903 6.546255 -2.5685387
-2.7261214 6.660018 -1.5255139
1.1733627 5.8233986 -2.707068
1.9255376 1.3694713 0.8447709
-0.49756986 3.558463 0.5231434
-0.5228934 9.057388 -0.2661627
0.67998743 7.185669 1.6526983
-0.25840157 12.117214 0.4488927
0.020679431 12.310423 0.12075209
0.69943595 5.835949 1.3238349
-2.04327 -1.2277498 1.4674585
-0.22779495 6.665797 0.9017385
-0.062180802 8.2169075 0.054306418
-3.4368377 6.450141 -1.7819347
-0.5871693 8.79759 1.6357553
0.049197294 5.875022 0.10434343
-0.85206974 9.171228 0.8131572
-1.2073112 8.033493 0.14451477
-1.6233587 0.4498853 1.076796
-1.7541273 4.5684175 0.051244825
0.11600055 8.706914 0.55473435
0.58810234 12.720213 -0.11000632
-2.922099 6.111821 -2.4913626
-0.78523743 5.420293 -0.087710515
-1.8104935 1.2435508 1.2654922
-1.6909289 2.8090296 0.37957102
-3.2330165 8.832991 0.92838454
1.2475729 4.9422045 1.3775048
0.43744498 10.358959 0.5057759
1.8445704 10.46274 0.64007485
-4.0500345 7.9899387 0.6498891
-1.0203493 4.935714 0.82690394
0.966028 10.105642 0.076446876
-1.9625957 -1.4200885 0.72690904
1.3184102 6.6413116 0.21552628
1.1505525 10.784527 0.55924845
0.7111517 8.233953 0.53086424
1.3316858 3.4148374 1.2659085
1.5903935 3.184175 1.068718
-0.12057471 8.370823 0.8364384
-2.4796495 7.1957273 -2.851388
-2.1155314 1.6234336 0.38141418
-2.795414 -4.5416975 -0.72122276
-0.7372613 9.164875 1.5673234
-2.0107827 -2.726892 1.3109901
1.0550952 10.120657 1.3148489
-2.0231843 3.8324585 0.43244398
-0.44870883 12.661231 1.0443091
1.017848 0.3647321 0.849499
-2.0005631 -3.97042 0.7543745
1.4561436 4.7382383 -0.17224437
-4.483982 7.352186 -0.33873522
-2.0175104 1.2709136 0.22200271
-1.394783 3.1892366 0.8000058
0.6786783 4.645668 1.7718363
-0.7301556 3.3962321 1.4038
-2.189095 -0.073731676 0.96539164
-0.47033364 8.585707 1.364902
2.132172 8.819515 0.796029
0.9571024 5.1052732 -0.38842076
-1.2148602 6.6910725 0.8241439
-0.14172441 13.669819 0.15192252
1.1599066 4.2472095 0.94176185
0.090829805 5.61205 -0.6181443
-1.5131836 2.7908902 0.7504531
1.2052965 4.9668922 0.9775487
1.5446252 10.186195 0.5250108
-0.67326856 5.498517 0.5077547
0.88997424 8.727646 1.2242808
-1.6436391 8.53092 0.045115307
-0.9454508 8.358091 0.7725475
-0.40478444 2.1633968 0.53974247
-1.192266 5.500477 0.007611974
0.41323203 2.9700942 0.65837336
-0.57728326 6.326806 0.4204147
1.4881363 8.978903 0.4915946
0.2987131 3.6308951 1.5275531
0.53052926 10.046183 0.7089715
0.00908758 7.3224545 0.712777
-0.14625362 7.9680157 1.0138364
-1.8902512 -0.84906256 1.555877
-1.0591915 0.22135511 0.5251876
0.05061294 11.3767605 -0.19781658
-0.93841124 3.4581676 0.65747344
1.8849707 5.955636 -1.457802
-3.2504528 7.2477303 -1.4315939
0.29101318 9.963213 1.0374012
-1.4302349 5.254834 -0.25983405
1.540163 9.6726055 0.43255788
0.5992764 6.0686398 1.0011535
0.7937461 5.413707 1.3234987
-0.95880425 10.281464 0.95364535
1.3427477 -0.7935897 0.22508967
-2.1543493 -4.626709 0.89938164
-0.33068436 12.921204 0.71269095
-0.91385794 6.711338 -0.27692342
0.13389462 5.182435 -0.62373805
0.66600585 1.0928698 0.60888803
0.22182661 8.517927 -0.27100134
-1.41576 2.0695457 -0.2801947
1.3329697 4.9243736 0.5775851
0.25199485 6.5162935 0.35248
0.31405216 9.064087 0.53858334
0.4474222 5.9825583 -0.06405261
2.0707855 1.9027991 0.3993222
-3.6844726 6.022525 -2.2168813
1.8817139 1.0681226 1.1094646
1.7740114 6.1850195 -1.6697843
0.13485408 4.241888 1.1984105
0.42572522 9.212751 0.14084777
0.94834805 -0.73808134 0.5322372
0.46222174 13.31992 0.08597532
2.0657587 -4.172862 1.0811667
-0.76772535 2.3582535 1.3051445
0.7569747 7.0408106 1.2871561
2.310789 6.440425 -0.39307272
-0.50623703 2.2604766 0.9167167
-0.9228637 2.484037 1.002212
0.95323634 4.8428106 -0.04015261
-0.90014696 8.448536 1.5378261
1.0754254 9.602785 0.31354457
-0.1693171 8.060482 1.64102
-2.377221 6.651572 -1.3050208
0.24432775 12.6271515 0.90429044
0.04012417 8.609859 0.09048574
1.0961211 3.8497415 0.68597615
1.272502 5.679532 0.11647469
-1.7713058 0.3053546 0.6543727
-1.0251758 7.325259 0.5030805
0.53872144 4.453271 -0.51897943
-0.48609048 10.157835 1.0442417
-1.7945104 2.3850646 0.5480195
1.041539 2.2718225 1.3129804
1.2733264 0.22359928 0.024037223
2.519095 6.745178 -0.45045525
-2.1828046 -0.14007756 0.45442373
-2.1709247 2.446701 0.5794287
1.342627 1.4638255 0.865867
-1.0829604 4.0571003 1.5721195
0.70330215 3.6846623 0.13219362
-0.40751642 3.8089032 -0.53763473
0.08200633 13.488235 -0.45398957
-0.63417053 3.09873 0.0025937553
1.6995866 -1.0675836 1.3724992
-4.2290163 7.630335 0.39459842
-2.0375533 -2.0163474 1.3828032
-1.4942973 6.1167135 -0.089199916
0.09274024 3.7886114 -0.47139174
1.4499013 8.643248 0.2297906
-1.435071 4.7650986 0.7348932
2.1147761 -1.3998644 0.591637
1.2077157 6.635789 1.2200556
-1.6214807 3.9473414 0.38592106
-1.6240273 9.166018 1.0955923
1.5804539 9.910046 0.14495715
-0.5220401 8.187157 1.032778
0.2818706 9.228275 1.2029467
-3.4995565 7.5211477 -2.7676282
0.6780683 3.5333724 1.5157394
-1.142745 9.591198 -0.08071752
2.1716452 -2.2293172 0.69776094
0.5281416 2.5133638 0.19668251
-3.3657246 6.7983656 -1.4592171
-0.05486518 4.6871614 0.08395213
-1.1473715 10.200211 1.3627067
0.14193502 7.655349 0.3918411
0.5876778 12.548256 0.27381378
0.5775269 7.215188 0.11609571
1.7739806 4.043149 0.81678
-3.3883739 7.320215 -2.5254588
1.2798064 2.302052 0.31784284
-0.8420546 13.014656 0.73515403
-1.3412087 10.147514 0.8738514
-3.0909462 6.524247 -1.5690336
-1.4660313 2.3103824 1.239305
-1.0367937 3.0633478 0.6697643
-0.24395159 11.451002 0.6112567
1.3088496 6.229368 1.1268077
-0.21139744 13.212809 -0.27439356
1.087723 9.399254 -0.122074604
1.0173609 1.6137581 1.0264645
0.9590117 5.0571337 0.42339075
-1.4180806 1.9389749 1.2748253
-0.6465907 3.4493775 0.9945321
0.96847427 4.634363 1.1299646
0.786175 1.6701031 0.6345167
-1.8162904 3.0992327 0.75471675
0.83853114 5.338848 0.6959573
1.0730889 10.707622 0.9396291
-3.9695 7.235963 0.047616843
-2.1993098 2.0271945 0.52739084
-0.8611193 4.5238543 0.9685657
-1.0269691 7.762122 0.44095445
1.1369259 6.7710505 -0.085254475
-1.4981582 4.4935846 -0.262043
0.63125885 9.450172 -0.17571053
1.3778491 7.6514893 1.1365142
1.6309178 0.57314014 0.45142072
-0.52149427 5.408058 1.7769945
-1.8760941 -0.90278196 0.625373
0.12520564 4.5242033 0.44268733
0.7404727 8.557999 0.22987017
0.38911766 8.799015 0.2227563
0.35185838 7.1684093 1.4217134
-0.36537033 5.980545 0.13811365
-0.37778682 9.551783 0.15532005
1.5164564 7.570675 0.69708645
0.5686009 2.7523232 1.00125
0.37582582 5.1795607 -0.07872173
-0.33411032 8.859291 0.010673547
-1.3647728 2.7095819 0.015139904
1.1395583 6.5064173 0.8325937
-0.7213322 5.700634 0.87694573
-1.1331615 5.961858 -0.110715374
0.22593418 7.363039 1.7963119
0.5328915 9.209513 1.5845292
1.3056722 8.060865 1.2165728
0.85784054 9.792362 0.69759536
-0.10557251 12.215776 -0.61122644
1.6210208 0.34758997 -0.22523022
-0.9864228 8.514717 -0.24526015
0.4059046 9.645588 0.17427593
-3.6160903 7.14009 -1.9527938
-1.8323948 9.828972 0.43792915
-0.32807988 9.922707 0.68294585
-0.5999601 7.850499 -0.29987288
1.0707104 9.021271 -0.14462075
-0.18976516 12.526781 -0.08232349
-0.21976939 4.9098463 1.1459911
-0.030015655 7.223852 1.394805
-0.33118433 4.522978 -0.6217325
-1.9363446 -4.6237984 1.3627522
-1.7828755 9.699694 0.096777245
-0.10897814 13.167383 0.97392917
-0.600476 2.7393374 0.15894297
-1.1532798 4.278962 -0.058999404
-1.1131659 10.746038 0.3704747
-2.846056 6.410857 -2.2456393
-1.630645 3.6734023 -0.24476224
-2.1116776 9.125744 0.52508605
1.5738945 9.7692585 0.86476815
-0.7087666 7.055402 0.46120745
-1.4053295 2.49859 0.45786804
0.5742358 3.2714152 0.26832414
0.23213437 2.7679076 0.98764
0.8399253 6.133746 0.69500625
-0.8836057 4.0757017 0.16616234
-1.0755689 8.948505 0.5731052
-0.81091166 13.050962 -0.31917483
-1.3021715 0.8884053 0.5342649
-1.0734217 5.050112 -0.036629654
1.6555109 4.5967245 0.15602559
-1.5527794 0.26696187 -0.15689954
-3.2615304 7.152325 -1.0284345
1.349746 6.369198 0.4952417
-0.38590997 4.8202724 1.4886146
0.54888713 1.4047863 0.8354142
0.075012565 3.4723854 1.1884487
-0.97235787 7.6488857 -0.22698376
0.5445677 10.32473 0.9762156
-2.1300144 6.693556 -2.3353524
0.26498598 5.508218 0.15498227
0.77427673 10.947641 0.6702442
1.2286658 2.6393995 -0.41575575
2.0851088 -0.051138557 0.25548804
-0.9071436 0.93203056 0.7101333
-1.6004894 2.8825278 -0.2926439
1.7420461 -0.7567271 0.04504405
-3.3154721 8.86515 0.5372603
-0.7612845 12.29813 -0.40404314
-0.93442225 8.113949 1.1379662
0.58123136 7.953308 1.6188166
-0.8468207 2.659512 -0.16938698
-0.49800515 1.7991257 0.39442623
-4.09988 7.936428 0.24338521
-2.1647267 0.18603355 0.6605511
-2.0215268 6.953717 -1.9799175
0.18584368 11.96184 0.30007547
0.894403 9.401941 1.4829855
2.2827525 6.6246824 -0.7003163
-0.46345353 7.6874075 0.9515451
0.53898036 5.7155504 1.7037556
-0.84112275 13.33205 -0.04686676
0.046892688 7.202549 0.322971
-0.95159984 3.0226388 1.412303
0.23000976 2.5779805 -0.07243672
1.8682485 1.4860988 -0.047172464
-0.38105828 5.321438 -0.13290304
-1.3494947 7.83304 -0.14390773
-1.7323065 -1.8884509 1.2177925
-3.0113397 6.616729 -2.9536266
2.062118 9.204912 0.17372781
-0.19858381 5.855777 -0.5594059
-2.999207 6.967782 -1.6489592
0.7297615 3.9576092 0.4782467
1.3094814 5.2956123 0.3535025
2.2523236 9.656956 0.8364371
1.8427086 -2.1914115 1.1701074
0.21790874 6.9952335 1.8100424
0.57794666 8.806837 1.5956352
1.5188081 2.8691444 -0.35924554
2.210927 -3.1474032 0.7782748
-1.7242792 1.5617836 0.34306908
-3.9381766 6.679552 -2.3709645
-1.2434301 7.333227 1.3246441
-1.2989876 0.22761789 1.2379622
0.16089895 12.244793 0.8235618
-2.6651988 6.7245226 -2.437066
1.9223466 9.593304 0.17312104
-1.1147652 7.339635 0.94103086
-0.15921402 11.856709 0.19371754
-1.2292819 0.24860397 0.16113567
-2.8678265 7.1119423 -2.2240744
2.6790333 6.7833166 0.24490541
1.2700851 1.8255029 -0.325624
-3.1395025 8.440154 0.6087626
-1.3847504 8.709541 0.3358575
0.26673543 2.4428926 0.78288376
0.5845444 6.229932 1.3629804
-0.91384625 3.7167835 1.5773301
0.19973442 8.414965 1.3825991
-1.016578 1.7786133 0.6689569
2.0698004 0.70531535 0.3360408
0.9781917 6.828355 1.5650752
2.4921055 8.600485 0.7806711
-1.3748722 9.414015 1.2848125
0.7383771 10.699167 0.3680573
-1.3085327 7.105932 0.72123694
-0.7590983 8.742556 0.7737472
-1.6266146 3.2012587 0.42580563
-1.1257784 6.9175777 0.45199358
2.620895 -4.041292 0.23416844
0.48453313 7.0319386 -0.33574802
2.2523222 -1.0886128 0.7459842
-2.6634083 -4.292321 0.6496352
-0.26976174 8.738447 0.728925
-0.78069925 2.885734 0.9495261
-1.9647527 -3.9451532 1.1798608
-1.9183183 8.938147 0.8770821
-0.7696495 2.7173514 1.3615468
2.1363883 -3.2735868 1.1283085
0.28260684 3.575666 0.16045052
0.8759681 2.4455142 -0.37820643
1.6374013 1.3569183 1.1745901
0.57906795 9.438606 0.5080352
-0.28660965 4.4472704 0.38164765
-1.6625652 4.9986286 0.99472404
-1.2929327 0.93356895 0.91640234
2.7459164 -4.6271563 -0.15410385
-0.22780263 3.2887998 0.6297382
0.39739543 3.7939162 -0.20560715
-2.595293 7.826235 -1.6034365
-1.7465863 -0.3749414 1.5319104
0.2860555 8.332389 0.30631477
-1.144095 4.917182 0.43530387
0.42456448 12.228115 0.28897548
-3.1180162 9.2059 0.6830534
0.9720057 1.2980142 0.73036397
1.3635318 0.59756184 0.80772245
0.8603339 10.488559 1.2044504
2.1608906 -0.076819494 0.6860132
-3.4235725 6.775028 -1.0821662
-0.51908374 4.0900764 0.48195648
2.0280333 2.2903566 0.31311727
-1.7869806 10.30158 1.0561221
0.25970298 6.101693 0.35348582
0.79315734 5.5261555 -0.43075335
0.89039195 4.899316 0.78468096
-0.95905185 12.773668 0.46638852
0.81953764 6.7891693 0.94500494
-0.35658222 9.176914 1.5620039
-2.9386225 6.195715 -1.3807626
-0.8600881 4.278125 0.570271
1.6103172 -1.45751 1.2605155
0.12247798 6.6277704 1.0298834
1.4409316 3.8794913 0.07406765
-1.4676836 9.666077 0.5221524
-3.2907033 6.004792 -2.3392806
-0.5483111 12.441538 -0.11909358
-1.7084396 0.6335714 -0.21280602
-0.705463 8.909466 1.1889501
0.18683204 3.5397172 0.83617485
0.208316 8.220274 1.04143
-3.5011373 7.4372663 -2.1574407
0.13306454 7.3333454 -0.35701853
0.41944277 3.6713486 0.4726417
-0.913862 7.419717 0.10011023
1.9237475 9.815622 1.0626214
0.38991576 7.3560534 0.40410084
-0.38269418 12.133186 -0.34144926
-1.175745 2.845398 0.99433255
-3.3833876 6.176674 -1.4846866
-2.066421 7.239047 -1.6673841
0.7999828 4.722336 -0.5170636
1.8187568 -0.8302796 1.0030434
-1.047411 3.665205 0.21351174
-1.0640635 5.2597876 -0.3486361
-3.6703715 6.4099636 -2.1517968
-0.28861475 3.8990207 0.71500933
-0.73501515 13.429281 0.3051654
0.719077 9.019606 0.47967964
-1.8316967 -0.47558153 0.47144973
0.9839437 5.927329 1.0522294
-2.6081843 6.08315 -2.1624494
0.87336993 -0.30277973 0.4737206
1.4027358 9.032862 0.07740112
-1.2905929 3.705082 0.48283058
0.0356088 12.741278 0.63551784
-2.4552302 6.771862 -1.7940462
-0.9351692 12.934483 0.05446455
0.34774065 12.005264 -0.044224292
-1.1651323 -0.14053622 0.76180506
0.72852266 5.25202 -0.12511319
-2.32268 -3.8461852 1.1090853
0.8199502 4.062516 0.8362675
1.112088 5.281907 1.4847562
1.4837565 9.982191 1.1994495
-1.3304482 2.2751899 0.061604254
-1.8934791 1.5093474 -0.028107345
2.2350874 -1.6891677 1.2163243
0.7704847 0.36543566 0.49923235
0.25255424 11.939575 -0.68716204
2.3646588 -3.6415668 0.61159325
1.5732291 -0.06170719 -0.13399133
-0.21299553 8.034327 -0.33475697
1.8282301 -0.23911026 0.616205
-1.0237429 1.9923236 -0.25863886
0.14320788 6.3521185 1.4348409
-1.4250565 5.67107 -0.2206899
-0.8570602 9.341681 -0.1702053
-0.660292 1.5131452 0.20256749
-3.2992773 7.822403 -2.5164895
0.89775455 1.2272239 -0.11880408
1.5932422 5.0158434 0.10860196
-1.1606891 1.9018784 0.13871875
0.27023518 4.6667776 1.8507123
2.0075002 6.287242 -1.3919766
2.176948 6.4638014 -1.0470259
2.2834053 6.817527 -0.23906207
0.294882 4.1657085 -0.5848701
1.1393547 5.4976864 -0.24510023
-0.72450364 10.8033495 0.24366397
1.1935027 3.2992277 -0.13421962
-0.57804334 6.519912 -0.41727877
-2.6019626 7.131488 -2.5195885
-0.47123092 2.1270666 0.13272855
-1.2458375 6.136531 0.70033836
1.8616319 0.6837096 -0.03267879
1.40045 2.0282178 1.2239323
-0.5530261 8.390484 1.7116807
-1.1225753 5.0480185 1.586148
-1.2898953 2.4489794 0.88545704
-1.6536632 7.34101 0.06844576
-1.5786893 4.9061956 -0.102798104
0.811286 2.2091422 0.117997974
-1.781456 8.580534 0.82491803
1.2385592 3.026597 1.1572351
2.638166 -4.5549326 0.27808452
-0.46773463 9.485565 -0.20936862
0.5055897 9.641558 0.86361957
1.9587231 0.245473 1.2686341
2.2339177 8.567034 1.2310181
-1.5794852 6.50233 0.25747687
-0.23381698 11.460455 0.16563073
-2.270702 6.3319645 -2.255371
-3.5642548 8.571857 0.6935258
-0.8593483 1.653069 0.99662447
-0.14102152 6.5280743 -0.18777078
-0.84994733 4.6894493 0.59475625
0.13481778 13.143883 -0.6108444
-1.5187438 -0.36363673 0.8022908
-2.260106 6.4655075 -1.6128495
-0.96627235 9.552324 1.0812712
-0.8245897 1.97264 0.38792813
-1.138664 0.90428865 -0.036789246
-3.086195 6.7559433 -2.2588668
-1.3653977 0.44518942 0.80427694
2.7224774 7.975209 1.0825064
1.6939492 -0.800261 0.45249927
0.81905925 6.058284 1.6304786
-0.19565958 11.444675 -0.4875201
-0.6609378 5.8561306 -0.14110005
-1.9050333 7.9176445 0.4709581
-0.8258581 4.82977 0.19607231
-1.436615 6.1267576 1.1436217
1.4183433 7.2388496 1.0336676
-2.1605635 1.2823367 1.0499983
-2.363205 6.549981 -2.6290345
-0.5197376 13.159573 -0.017833777
-2.4975276 7.2426586 -1.1587374
1.1792812 -0.46705395 0.29593003
1.1959269 5.6246147 1.3113794
0.82762814 3.1599607 -0.14974773
-1.6547935 8.45289 0.45140868
-3.430293 8.400341 0.37984663
0.20945466 3.2958174 0.4713363
-1.6900346 9.296274 0.74010944
1.0717053 8.989559 0.6662658
0.46152246 6.6072626 -0.4120385
1.2928865 10.375248 1.1158915
-1.1652272 -0.11521773 0.3543054
-2.3276072 -4.6095743 0.41846836
-0.9616935 6.5249863 1.5455818
1.5393672 2.6236372 0.035150304
-0.50122476 4.6753445 -0.29937357
1.5608165 0.763826 -0.23935002
0.3629291 11.021545 0.78518677
1.6014631 1.6061449 -0.28108728
1.495271 -1.4006233 0.91072845
2.2861447 -4.310218 0.30128312
1.8872559 0.08485219 -0.038878538
0.6345029 4.5353928 0.12882873
-2.480795 7.5815144 -2.6450686
-0.454513 8.0192795 0.027229965
0.22742215 8.216782 1.7389648
-0.42864347 3.823357 1.1233017
-0.9379803 2.2596264 0.083471864
1.7176328 0.7961973 0.8444662
0.5606046 7.56063 1.633378
1.7278799 4.8374195 0.4426041
1.4374492 2.4009151 1.0938218
-0.16534647 7.363062 -0.046110712
-3.476355 6.7360983 -2.129709
-2.7102942 -4.211278 0.27249545
1.7647974 2.9055815 0.8199229
-1.990093 -4.294327 1.5506673
-2.2307038 7.323264 -2.519926
-1.1895082 -0.6574297 0.8659924
-0.81533027 3.3276238 0.30025518
-1.4844725 -0.36290044 0.3180971
0.7588047 6.648114 1.2999892
-1.824182 4.9762173 0.22918817
-3.5435343 7.104533 -1.5971999
0.9039837 2.533939 0.3254472
-1.2535489 4.408019 1.1052313
-0.2143313 5.0073385 -0.28991926
-0.6757622 11.912024 -0.17654812
1.5760605 3.3207998 0.46853352
-1.3021729 7.396799 -0.14753896
-0.75236607 1.212187 0.4434241
-0.99994993 5.301344 0.28808916
-0.92090774 6.924835 0.7964344
2.6341739 7.7734966 0.6815777
-0.25371766 5.354496 -0.55262554
0.1311507 9.400276 0.44570047
-3.1842265 6.4400663 -1.1648054
-0.46731925 12.784973 -0.7839643
-1.332602 1.5239964 0.12897298
-1.0417924 2.6163135 0.20094591
-0.5421492 5.627184 -0.45472533
-4.308296 6.425989 -2.2065396
2.3183432 -2.8866467 1.0421624
-1.6088102 4.6075068 1.1756358
-1.9825387 1.8868105 0.12725374
-0.58410656 12.370352 -0.7822876
-0.6601318 5.7575655 1.7892525
-0.81024826 9.595589 0.19954464
-0.32744884 5.8646574 0.79334223
-0.059121154 6.7774515 0.20894352
-1.250113 9.219385 0.9508189
-1.5152476 2.47856 -0.30048537
1.9107456 -2.4469671 0.8972243
2.0737276 -2.5473833 1.2204053
-4.0556355 6.7529593 -1.7355776
0.8076832 3.9489236 -0.18999386
-0.9362203 6.1696444 0.4812131
0.84242105 7.1072245 -0.16828081
-0.7101104 9.770315 -0.1264331
-0.47687328 9.905565 1.4208348
0.50026727 4.0086756 0.14980209
-0.8597833 6.2243443 -0.3337258
1.0048914 5.2712955 1.0562437
0.82608384 10.193651 0.47753072
0.9131875 6.947405 0.1967501
0.8746793 0.066880345 0.3447938
-2.59594 7.8499556 -2.325735
1.1370628 3.7029982 -0.1178488
-0.97748125 8.089754 -0.22505465
0.54009676 2.3258152 -0.18762758
-0.6410941 11.16621 0.111628324
-1.4959896 5.4214153 1.1388977
-0.5761293 8.256302 -0.2938943
0.32384998 9.657135 -0.1759378
-2.1673384 -0.4059307 0.18134868
-0.103014305 4.2816525 0.05623623
-3.429453 7.9106865 -1.7684493
1.551091 -0.13931283 0.94287086
1.9939156 0.3603543 0.19474596
-0.074942484 3.7978873 1.2944372
2.1542978 0.98501456 0.87128425
2.1927543 1.1343923 0.50569963
1.3754346 10.251043 0.15973935
-0.25331593 5.686405 0.45791733
-0.56621623 8.653673 -0.30915123
-0.6646725 3.7940464 0.80490947
-0.48332047 3.166409 -0.38639587
-1.3043041 6.5503397 1.3103755
2.5440164 7.3712406 0.39544025
-0.8119148 12.428505 0.6011863
-0.68022895 13.321148 0.6840112
-0.1594516 4.138933 -0.57320976
0.5061985 2.6977658 -0.33685118
1.1264691 2.2137933 0.95607245
1.3131909 5.0959587 -0.19981632
3.0967674 -4.58521 -0.21300316
-0.49695534 3.7485785 1.5111804
-1.0731487 3.5857286 1.179389
1.2077088 4.2153425 1.3810527
-0.67673373 9.749144 0.5551413
0.34352934 6.922591 0.3363858
0.5332563 8.653221 0.57438874
-1.3119755 3.7723393 1.4670346
-0.7754427 2.032775 1.1026182
0.34622562 7.377083 1.047235
0.8791678 9.520721 1.0834594
0.6997633 5.6222353 0.99678063
-0.71608984 2.245369 -0.19111088
-0.6537961 9.552599 1.4931569
1.5126534 4.86425 1.0713627
0.12444377 6.4939203 -0.53324246
1.6609879 9.174639 1.1777899
1.0317106 3.6000452 1.4035034
-3.5609446 6.472333 -1.3054998
-2.033267 -0.7247268 0.11412218
-2.2002983 -1.6451569 1.2979074
-0.20683897 6.4807205 1.7265885
0.80221653 6.6928043 -0.30594772
1.8982892 3.1166515 0.14919242
-1.8420429 3.847044 0.7977257
0.91330254 8.31164 1.2256131
-1.3923123 10.438908 1.1693609
-2.1230068 -3.4968138 1.253274
2.305471 -1.955965 0.91918063
-2.9791923 -4.5858135 -0.3723995
0.8350092 4.2694845 1.6000953
-1.9264224 2.7000031 0.81935847
2.0206099 2.2323804 0.72343063
0.013873547 9.70402 0.7919383
0.47021353 6.5144997 1.1265893
0.9101099 8.544432 1.5502806
-1.9010067 4.214904 0.23127991
-1.0933001 8.829695 1.0215344
0.5417023 3.9294252 -0.5840318
1.5446295 4.3750944 -0.11928974
-0.7572317 6.1011286 0.848608
0.68614113 9.106653 -0.2335665
-0.43430418 3.1794157 0.27884132
1.8470955 0.46272057 0.74019265
1.387115 1.8503921 0.3828181
-2.8395724 7.780835 -2.6434183
-0.53767097 4.5136547 0.68431294
0.34446245 10.049759 0.2963124
1.7361705 4.1776953 0.12742719
1.1865616 7.6283493 -0.014759702
1.2793863 1.3833747 -0.2905265
0.18653625 11.665205 0.03382042
-3.662755 7.694165 -1.5469737
-1.6605105 10.337721 0.64545786
0.53842103 10.002563 -0.045799457
2.3561811 9.2464485 0.8683475
2.15171 -0.12565756 1.1075466
1.5376136 1.382199 0.11714962
2.6004457 8.1944065 0.792783
-1.8305027 8.194544 0.7187927
-0.16922379 11.098696 0.12659332
-0.046247877 9.8923645 1.426414
-1.1907966 8.186434 1.4354253
-0.1082011 6.0467434 1.4934597
-2.5015974 9.690529 0.26568258
1.1030774 2.8619847 0.5525454
1.3609152 4.1957254 0.259452
1.199867 1.2164228 1.116946
-2.6186938 7.4690986 -1.6987412
0.18179935 4.996688 1.1439986
-0.18409401 3.1481142 -0.13983119
-2.7891378 7.9752293 -1.9678528
-0.13667217 3.4261246 0.2366097
-0.13223723 13.295314 0.13701552
-1.1440136 4.483693 -0.45287973
2.271119 -1.2403018 1.1253839
-0.71186626 9.855185 1.0426333
-3.4720397 7.475095 -1.2058761
-1.9653828 -4.3019466 1.0932956
-0.6120256 6.5043993 1.7730908
-1.8907254 -0.9965843 1.091877
1.5325224 3.6607456 -0.29382682
-1.7216561 -1.6936958 0.9250814
2.0675626 -3.513864 0.809965
-2.542221 9.34602 0.9633547
1.1354439 1.9875102 0.04621456
0.049333237 7.060175 1.021699
1.6432152 5.119915 0.79396236
-2.8495612 9.464184 0.41752106
-0.4688964 4.128189 0.10045998
2.7019162 -4.1861343 0.89635825
1.03859 4.2648335 0.5227859
-0.06867789 7.5294905 1.1128342
-1.6501236 3.083365 1.110224
1.9897535 2.641572 0.57921636
1.5021062 4.079034 1.1102049
0.841921 4.263489 1.1922832
0.05350414 4.6084976 1.0784242
-3.6368294 7.0887766 -1.1859193
1.7267265 5.994849 -2.0732079
0.7813152 4.479208 0.7984611
-2.233934 -0.43406546 1.1302063
-2.1645293 0.5867213 0.48523778
0.02493614 5.353134 0.48650658
-0.47612584 6.881135 1.7959316
2.4932132 7.437355 0.8136181
2.5686355 -4.590912 -0.66126394
-0.6762978 4.995104 -0.1642704
-0.2782114 9.513622 0.58752275
-1.6597548 -0.74634373 0.1901455
-0.14313039 4.685835 1.8521318
-2.8943596 8.586781 0.86371183
1.600133 0.38461584 0.14418536
-2.6430135 -4.609563 0.084770486
-2.583036 -4.2051334 1.1056161
-2.432188 6.959234 -2.1817603
-1.5536745 3.5326996 0.1729052
-0.8890337 8.021954 1.5379674
-0.543699 12.288095 0.86760247
-1.3708475 3.8937893 0.04438658
1.7777495 1.275765 0.4341051
-2.6080527 6.8777857 -1.0870624
-2.872819 9.510929 0.8027985
0.05281139 3.1254392 0.80988777
-3.7700806 7.7698517 0.44945955
-0.031299427 13.107731 0.49276638
-0.5355283 10.497366 0.03533163
1.9326816 1.9060924 0.0019606834
1.1328511 5.961623 -0.10605498
-1.2686536 4.6960173 0.026504949
-1.467644 7.6160173 1.0647023
-1.7293017 9.358076 0.36892086
0.62884545 5.357193 0.27315873
-3.798244 7.3084993 -2.594894
0.5280986 8.598196 1.227242
0.8480346 3.3181353 -0.53418803
-0.93334204 8.578091 0.4174857
0.24839365 13.023386 0.8444102
1.4135954 7.463539 0.28887337
-0.12696692 5.3514404 1.1497056
0.23408735 7.569769 1.3963139
-0.057879955 4.910307 0.43819857
-1.4291885 5.053356 1.3171582
-0.8611884 5.888077 1.2355587
0.8881918 0.74481094 0.73578453
2.1715603 8.29562 0.945052
0.29177594 4.5359707 -0.19274512
0.95093954 3.2809777 1.2732897
1.6849954 2.1001024 0.25997937
-0.9929315 5.1511803 1.2003515
0.2510422 12.303812 -0.7722759
0.102331534 8.0280285 0.636989
1.9353268 3.0679097 0.50885725
-1.1620612 2.0626402 0.9360348
0.48789245 3.1191049 -0.4566365
0.07620326 5.627183 1.5024357
-0.23812073 11.725037 -0.14561078
2.5188918 6.567112 -0.099689245
1.132024 5.992919 1.3986759
0.3801366 2.8396125 1.3482809
-0.6292082 8.951994 0.43782794
-0.27362353 10.245771 1.3550775
-1.3192034 9.292732 0.59839654
-3.3110542 6.924124 -2.5999146
-0.089940086 8.643963 1.1763248
-1.2333088 10.808554 1.003408
-1.0593419 5.3486137 0.6604711
0.99382293 9.125574 1.0770402
-0.71992767 10.459951 0.43645972
-0.4629748 4.7967167 0.3982244
1.2611191 2.7033691 0.26251215
-1.6082532 4.2441244 0.9421488
-0.16910562 6.552553 1.323282
-3.9131093 7.4299736 -2.196659
-1.422431 -0.72638786 0.48380077
1.5900235 5.651783 0.3881361
-3.0707145 7.5161695 -1.1274426
1.5576813 0.12834024 1.2778757
1.1582665 2.618544 1.2889414
0.23202151 8.646154 1.6999712
2.3188682 8.153961 0.5958706
-1.6876752 4.138317 -0.13091019
-1.3738887 4.6922827 1.4732864
-1.572761 5.7638245 0.98988485
-2.4573326 7.8156414 -1.9730747
1.8383956 3.6762486 0.6763834
0.810364 2.8122654 0.7470125
-0.7909118 8.318274 0.07481301
-3.4690108 7.8787966 -2.1992083
0.6736684 3.1416917 0.9763763
0.5164131 3.3590946 0.7307539
-2.0335116 2.6551538 0.25810915
-1.9923499 8.7055645 0.20899704
0.04841715 6.398781 0.7023972
1.5805438 1.1676238 0.80515397
2.2452574 9.426268 0.46221292
-2.430801 8.862568 0.34168106
2.2986317 -0.70764446 0.5807452
-0.45152956 12.8376255 -0.26543474
0.42486393 12.510443 -0.46806723
-0.41138124 4.5451326 1.0521724
1.2676413 9.274723 1.3425509
-0.77748287 6.2834396 1.2871728
0.20463932 7.0946217 -0.031074211
-4.671444 6.721697 -1.5230358
-0.20077261 12.0841255 0.8277401
-0.214989 7.238945 1.7110424
1.3829305 7.0176983 0.25431943
-0.35175896 7.26289 1.0402603
2.176095 -2.1178026 1.2188966
-0.32601738 9.7190895 1.0829544
1.4155607 4.1273336 0.62197185
-1.0067468 4.1323633 0.86536086
1.0930998 9.189596 0.27554327
-0.058117315 11.96217 -0.9183469
1.7983153 3.943736 0.4041772
-3.0990539 8.669081 0.30060488
-0.6529466 4.5971985 1.3729739
-0.14526099 2.8046403 0.075970024
-1.7757843 5.362501 0.39145714
0.52465427 4.6952286 0.5435847
0.06975329 9.021812 0.14128372
0.3958332 12.376493 -0.085631415
-0.5584495 6.0357237 -0.48670107
-0.8607302 6.4756927 0.77486825
1.4784243 10.559633 0.82031727
0.24275157 7.944035 0.11985426
-0.08899902 5.4193144 1.8555424
0.31455588 8.335033 0.67317796
0.56104994 3.9282374 1.6422358
-0.96658325 10.427158 0.105891645
-4.1348963 7.4826193 -0.2706715
-2.5567188 6.2513914 -2.4960473
2.1731634 -4.318817 1.443999
-1.5394714 5.7388153 0.14691418
-0.07735564 12.819078 1.0464153
-1.5602405 1.8384631 0.08052005
1.2638628 4.8728123 0.19952086
-3.7247114 7.8660784 0.84083664
2.3613691 9.002237 0.5472436
-1.0766485 3.317565 -0.37101412
0.044736505 6.8685102 0.6285542
-1.2687275 0.6540458 1.2605305
1.1422529 0.59596694 0.48207688
-0.16008255 11.048642 -0.26243412
-0.6146045 3.1642623 0.7085984
0.87401056 6.536702 0.079104245
0.23199588 6.1778927 1.07796
0.7749214 1.3675904 1.1242039
-0.6984397 7.242136 0.8276098
0.395548 10.548647 1.2226727
1.3256652 6.0227003 0.30487847
-1.6683619 8.137827 0.1054181
-0.6215669 9.334965 0.47322083
-2.076892 -0.51697826 1.4541731
2.7984376 7.2045965 0.19581151
0.53110623 4.2094145 -0.19678074
1.6263406 1.5902264 0.6459532
1.8827486 -1.208621 0.9761138
-3.7353244 7.7299805 -1.9785066
2.1743674 -2.71356 0.75962543
0.2249743 13.497091 0.31786782
1.7899253 9.942595 0.5884093
-2.5523024 6.2770586 -1.4569676
0.0029739859 5.128994 0.08853334
-1.7848015 -0.39941138 0.014252577
-0.10298595 4.5630054 -0.28287345
1.0644908 10.472748 0.27790767
-2.49509 7.36152 -2.1405869
-1.3295789 7.5886927 0.66386807
-0.62883294 10.154629 -0.057370007
-0.2632293 9.208797 0.26583743
-0.49938387 8.182344 0.35147822
-2.366938 6.2327433 -1.8737669
2.3802872 -3.4768705 0.9729165
-0.8728093 6.6186085 0.40770125
-0.88477266 3.7207227 -0.48551434
1.3356235 10.08102 0.8206501
1.2667959 8.872528 1.3269205
0.13343608 13.377108 0.728523
-3.8666334 6.8470116 -2.0758066
0.44530922 8.486649 -0.005661214
1.0849357 8.792248 0.30714452
0.9637549 5.5104094 0.3652553
1.0103915 6.7304564 0.5070337
1.2939882 0.24155277 0.44164532
-0.18325552 9.354097 0.98043287
-1.783813 2.1535454 -0.15406862
-2.259901 9.872883 0.59887445
-2.0729585 -1.8641248 0.7863538
2.006534 9.205418 0.6582122
-0.13479659 6.244261 1.078058
-0.7986314 6.1056805 0.118975624
1.843236 0.07599875 0.9253491
-0.60500145 1.511512 0.6522815
0.143033 7.7357817 -0.32238406
-4.0357666 6.139868 -2.0284572
0.16431308 4.9227905 -0.26597178
-2.0206003 3.3956518 0.5353192
1.5710571 -0.34615433 1.3220239
0.6682992 8.41691 0.9113301
-1.640846 5.3432283 0.027572274
-3.4587455 7.4664755 -1.7341337
-0.5468111 6.698921 1.4108949
1.6728978 1.7188644 1.0167663
-2.0389862 2.2704487 0.8779931
-2.0447788 0.89378536 1.1764989
-2.1322794 1.9341409 0.9205328
-1.1520474 7.712944 1.4403358
1.3170564 1.8784618 0.84358525
-1.641242 -1.1622446 1.4570768
1.1092753 9.842953 1.0346332
-1.0014019 1.5624921 0.3516667
-2.6238341 -4.6115837 0.8594489
-0.46115458 6.035619 1.1193318
-0.26321584 2.492866 0.7239243
-0.18292883 4.495964 1.3700678
-0.72072244 8.737507 0.06274836
2.0195193 -4.615815 1.2920868
-1.4731317 1.2573645 0.8798764
1.2213533 -0.11740275 0.1932208
-3.2601686 7.0996037 -2.2268615
1.984529 -1.38921 1.3595133
2.3217182 -2.4228697 0.9708557
-1.655416 3.5664177 0.57553303
1.4919698 10.601122 0.41966635
-3.651516 7.0487566 -2.3436213
-0.5487882 9.340641 1.1916642
-4.5191784 6.629612 -1.2393004
0.22630289 5.421503 1.1372714
-0.4482715 4.965329 0.7605095
1.0924256 8.078096 0.5508647
-2.1515155 9.8981285 0.17423007
-2.6590753 -4.355341 -0.2042037
-3.0940619 6.057373 -1.6948652
2.0913072 -4.2853594 0.66383624
-0.83571947 3.0459695 -0.29794204
-1.6248851 1.5646868 1.1526654
-0.16814071 12.922014 0.032095477
-1.6293776 -1.2262406 0.8901851
0.07383935 6.1904087 1.8573148
-2.347804 9.039228 0.7960607
1.3623817 9.060905 0.90563273
1.2326381 9.695036 0.68329275
-1.8596103 1.02458 -0.063455775
0.25338477 5.2239037 0.8001276
-0.30758458 5.201976 1.4943541
-1.0268385 9.99861 -0.024504215
1.8062141 3.3814702 -0.093213126
0.89111316 4.9596624 1.6515179
-1.5611827 7.2676764 0.9550586
-3.9596987 7.629195 0.06753866
1.965663 -1.606873 0.98218095
-0.29812086 10.657924 0.3169179
-0.6455009 3.458654 -0.48814678
-0.0829187 11.042652 0.79637754
0.33224934 5.752282 1.0039334
0.6135136 10.208967 1.3850629
0.84267664 8.03137 0.94376993
-0.08316049 12.835375 -0.41459727
-0.06305629 4.116026 0.43531275
1.3195779 0.6966299 0.15506488
-0.41536963 4.375723 1.6610732
1.6685557 5.259923 0.43847865
0.85843873 4.452857 -0.1904926
-0.37210745 12.127447 0.056631207
-0.5506669 8.372168 0.6941465
-2.7500205 8.580193 0.3361327
0.21712765 10.329632 0.028553676
-0.79537857 12.177389 0.040251516
0.17384773 10.987024 0.035276674
1.8760822 -1.817132 1.2876897
-1.0564921 8.867792 0.14012635
-1.202277 7.151538 0.14349142
-1.1646938 7.9790382 0.7619425
-0.28878552 13.344597 0.75312245
-0.55489326 7.9871025 1.7229791
-0.42565882 11.29723 -0.19170085
0.03531439 6.3021135 0.118904635
-0.37393272 5.412079 0.7684159
