0.547309 5.231120 0.969008
1.491919 3.412752 0.165048
1.766416 4.348443 0.737837
-1.086153 4.760800 1.558768
-0.033485 5.210030 1.396895
-1.875285 9.563028 0.028156
-1.280252 9.171146 0.212919
-0.064287 7.722584 -0.389865
0.435822 4.509723 0.999864
2.219365 -4.644681 1.023202
-0.638522 7.935991 -4.224011
0.058622 8.941691 0.976264
-0.360893 7.239752 -0.061070
0.424022 6.788505 1.704270
1.233332 10.037144 0.865395
-0.633875 2.705947 0.962091
-2.198683 -4.271027 0.743298
-1.083643 7.670957 0.065843
2.468096 -4.248634 1.532953
0.289975 5.847466 -0.259972
-1.502206 -0.049746 0.050466
-2.445820 7.065302 -3.222078
-2.357879 -4.246622 0.228674
0.629090 12.274479 -0.039737
1.170596 6.961858 1.005967
-0.248527 4.181182 1.022094
1.547633 1.705874 0.131928
0.329327 5.122197 0.302414
-0.388462 3.499601 1.178942
-1.445039 0.560307 0.352165
2.116033 1.510846 0.798972
2.048150 9.124784 1.522603
-1.574584 7.914945 0.801817
-0.769491 10.269054 1.455381
2.897980 -4.293870 0.291105
0.317830 10.028225 0.108258
-1.476870 0.995430 -0.374753
-0.121532 5.146575 0.694331
3.239551 -4.542140 -0.212191
-1.294026 6.617067 -3.450275
-0.272236 10.310916 0.533742
-0.792426 7.627705 1.677032
-0.562024 7.926155 -3.829821
1.923882 1.794133 1.001046
-1.246141 9.041283 0.802460
-1.921997 7.444162 -3.133966
-2.302231 7.750431 -3.314801
0.627011 2.571495 1.318153
-1.068620 8.493426 0.111711
0.448523 4.205962 1.323662
-0.349452 11.803999 -0.117427
0.973146 1.006360 0.426566
1.350922 -1.091394 1.329065
0.321424 12.781320 -0.462807
-0.995346 8.079066 -3.706597
-0.479884 10.783569 0.848461
-0.092473 12.865798 0.603494
-2.410760 7.710793 -3.608392
0.723436 7.900227 -0.116216
0.976931 4.660085 0.442252
0.867289 1.918820 1.328696
-0.935861 0.906668 0.241610
2.172905 0.656297 0.929430
2.617163 7.316295 1.390498
-1.979617 3.176590 0.085280
1.195294 2.800670 -0.073674
-1.377384 10.143363 0.537761
1.599019 -1.792192 1.043286
0.365483 7.753499 1.033010
-0.798040 10.960606 1.122373
-0.326722 3.207772 0.941595
-1.262857 -0.429399 0.592650
1.455475 6.712701 0.814345
0.239927 7.361736 -3.853999
1.749002 9.611445 1.186684
0.561911 13.503440 -0.050492
1.374922 5.254261 1.263865
-1.261574 10.539518 0.798973
-3.189777 8.409630 0.460910
-1.805013 5.003534 0.605466
-0.955243 7.040939 1.156628
1.961673 7.139130 -2.179512
-0.038117 3.006699 0.114611
-0.156065 4.728948 0.631501
1.242083 8.421318 0.635356
-0.501758 7.042458 -3.548696
-1.892366 -2.024154 0.766299
-0.427221 12.937086 0.348307
-1.171725 1.422975 0.980787
-1.459365 6.942911 -3.236773
-0.811881 5.040914 1.326680
1.189320 0.404451 1.296697
2.072193 10.102438 0.722538
2.628043 -3.975732 0.965663
1.487220 3.700280 0.474758
-0.817059 5.869215 -0.038052
1.311724 1.365416 0.504075
1.435969 -0.517073 0.788171
-0.225897 5.836971 1.067839
1.596411 5.968705 0.867156
2.031111 8.921693 0.761637
-1.567411 -0.125858 1.367204
0.668567 2.151665 0.524503
0.514372 4.824383 -0.627731
-0.555783 6.740246 0.561771
-1.784438 0.482766 1.408742
1.739170 -1.531585 0.768380
0.685896 7.415221 1.328929
-0.679119 7.908618 0.044805
3.091293 -4.600567 0.402815
-1.022161 9.936688 0.378726
-1.719203 2.158889 0.196891
-0.116780 10.577895 1.357722
0.643135 1.947161 -0.124904
-1.393271 5.572519 0.664744
-0.211799 7.125163 0.296681
0.472120 1.464055 0.346248
0.785245 10.586028 1.057970
-1.380459 1.728768 0.798070
0.989615 2.074996 -0.281850
-0.693193 6.578927 -0.083271
2.894827 -4.433457 -0.301219
0.083076 4.002400 1.461709
-0.277654 7.016184 0.668137
0.244696 12.219572 0.041198
0.642338 1.546016 0.007033
-0.326576 6.375202 -0.269951
-1.593475 1.255601 0.026825
0.781879 13.101573 0.562455
0.391229 5.037238 1.378017
1.262377 0.975265 -0.188730
0.836244 10.403113 0.446260
-0.038846 13.703417 0.818709
-1.724202 2.365559 1.035898
-1.436921 1.859693 0.324464
0.920024 9.416794 0.478106
-1.161895 6.296552 0.918291
-0.956642 7.292248 -3.314571
-3.611228 7.086631 -1.555715
0.369019 5.500836 1.326001
-1.122397 0.612322 0.106771
-0.647502 7.272000 -4.219423
-0.393290 6.818978 0.171357
1.056824 4.225983 -0.429896
-0.246942 7.840535 1.215681
1.342399 8.704257 0.251102
1.100641 6.345871 -0.125950
0.978144 4.547444 1.593231
-1.300817 4.365355 0.650800
0.839012 3.174637 0.512640
0.146598 5.804788 0.447756
0.171130 4.226259 -0.312119
0.395328 6.325385 0.780542
0.543524 3.076311 1.349990
-1.245729 3.375079 1.361204
-1.238503 3.527371 -0.201950
1.227578 7.840342 1.075819
0.008728 3.705889 0.386274
-1.771830 8.060302 -3.052658
0.158742 7.766587 1.779665
0.567034 5.612411 -0.093261
0.599236 7.804249 1.349700
0.439374 13.632638 0.308583
0.117028 6.945335 -3.313399
1.766494 -0.106384 1.527168
-0.572103 6.172424 1.762832
-1.193584 5.560255 0.962166
-1.584805 1.379067 -0.391406
-1.146171 9.566044 0.238184
1.670080 8.714200 1.396844
-3.523476 8.203973 0.226591
-0.734867 11.120161 0.681647
0.627059 4.637722 1.351655
-2.114087 0.688631 0.769374
-0.409291 5.707168 -0.017392
-1.246851 5.921421 0.746887
2.262359 -1.518254 1.136328
-0.637648 1.969044 0.629032
-0.215521 6.920549 1.144983
-0.662831 5.263103 0.055141
-0.746807 8.188489 -3.642883
-0.629565 7.502360 0.253994
-1.269429 2.675181 1.199002
-2.188587 7.077024 -2.952933
-0.648724 9.631730 0.889403
0.167806 10.404732 1.083229
-1.792341 4.631632 0.787582
-0.093478 7.162215 -0.516775
0.146745 10.489674 0.614793
-0.817240 6.888744 -3.276835
-1.431104 3.374942 -0.535174
-1.723237 1.975101 1.055870
-2.358097 -0.697175 0.875146
-1.085110 1.028772 1.052890
0.246848 9.368017 0.946765
-0.253032 10.972553 0.158004
0.811806 7.728295 0.201582
0.308752 13.276331 0.123311
-2.116974 2.987129 0.380662
-0.470251 8.349733 -3.945258
-1.524931 7.828340 0.037000
-1.265884 4.967337 -0.460441
-0.310294 12.498360 0.526397
1.276764 3.454526 0.982548
-1.945054 2.522710 -0.135523
-0.930133 3.943263 0.353139
1.296613 5.704719 0.681395
-1.028810 9.948939 0.775647
-1.168118 8.387889 1.089725
0.228940 3.419004 -0.434722
-0.402567 13.693087 0.381958
-1.068217 5.804450 1.464488
0.949943 1.650033 -0.202925
-0.031001 9.191829 1.328011
-1.089318 4.747097 1.144840
-1.694312 7.611223 0.571551
1.204684 8.280722 1.106826
-1.286039 6.111293 1.340187
-0.862740 4.716384 -0.297501
0.596545 8.197567 1.380496
0.370550 13.219653 0.491709
-0.322894 5.027959 -0.068817
-1.110315 9.914855 1.141331
-1.224686 6.559233 0.318572
1.024525 9.790852 0.276889
1.677151 3.167796 -0.184797
-1.354156 8.306641 0.744558
0.505715 10.697337 0.515737
0.621321 1.116331 0.194326
-1.541273 1.259264 1.267675
2.446751 8.482981 1.590869
0.154999 9.670865 -0.048154
1.154106 7.202465 0.683232
-0.114782 7.610263 1.557320
2.136019 -0.419298 0.626448
2.187776 -1.754295 0.792984
1.562383 2.957002 0.119271
-2.634555 9.880640 0.536258
-1.330381 10.090246 0.148533
-0.966931 7.346765 1.442822
-0.854480 3.880202 1.097699
-2.188381 0.371709 0.199627
0.101014 12.534714 0.761338
0.131327 9.802702 0.396819
-2.685484 7.368386 -3.436620
-1.622137 0.168452 0.690488
-0.044592 6.751033 -0.571778
-0.460073 2.430108 -0.203672
-2.038569 0.305538 0.923400
0.433559 7.575896 0.032541
-0.634550 10.151346 0.775079
-1.771446 0.967982 1.077301
-3.431409 8.178094 -0.173562
1.078315 7.032575 1.402652
-0.397111 11.900907 0.788103
0.615120 5.297124 1.732337
-0.415665 2.871386 0.299180
0.192231 7.187464 -3.170457
-0.300253 2.501456 0.118905
2.072319 1.454589 0.451168
0.418724 1.863655 0.189707
2.422930 9.018177 1.493705
0.055132 4.931290 -0.688238
1.701945 2.109180 1.131078
-0.960644 7.376959 -2.902657
-3.807467 7.762692 -0.906578
-1.563389 7.645933 0.266025
-0.466910 12.118872 -0.338447
-0.890258 10.692598 0.845274
-1.447623 -0.443928 1.027516
2.515049 7.381764 0.160104
1.555566 0.525538 1.220648
-0.403196 7.429655 0.570140
1.325508 7.212046 0.143009
0.220442 5.369979 1.711384
0.791049 8.159152 0.228971
-0.041646 4.813047 1.422080
-2.045541 0.718396 -0.027898
-1.138596 2.288805 1.218931
-2.252767 -1.023661 0.476282
-1.054949 3.671662 0.829444
-0.233980 8.106918 0.730309
-0.387564 8.588856 1.010635
-1.650284 10.661129 1.017594
-0.515289 7.544497 -3.442492
0.430194 8.988983 0.987323
1.977638 -3.878960 1.153246
0.687507 3.851172 1.176010
0.661775 6.365943 0.052805
-1.927823 3.576989 0.025380
-3.801012 7.394722 -0.858180
-1.812485 1.227680 0.296158
1.068513 8.750359 0.809779
0.860786 5.625920 1.666789
1.105487 0.025700 1.110312
-1.050617 3.123505 -0.133255
-1.431801 6.867966 1.120073
-1.824922 10.522404 0.377126
-2.111881 6.889635 -3.763351
0.100859 9.618031 1.279964
-0.460462 12.892035 -0.364305
-1.534829 0.872361 0.037419
-0.988653 6.669044 1.030701
0.052904 5.770255 1.753721
0.885512 7.266289 1.724571
2.439974 7.184979 0.555653
1.310102 -0.132351 0.598935
0.147033 11.736006 -0.610212
0.033478 3.638621 -0.187339
-0.108323 6.175352 0.332945
0.402084 7.238933 0.644085
1.278671 5.289139 0.829050
-1.983743 8.684018 0.636014
-0.218999 13.236928 -0.355502
-1.376257 5.589907 0.244341
0.950408 3.016879 0.152904
1.456833 2.758211 1.215138
-0.336476 7.678635 -0.045845
0.735458 13.283667 0.182550
-0.202582 8.415677 1.604874
-1.557925 3.431986 1.112616
1.430110 9.833282 0.449518
2.001239 -0.766859 0.447845
-0.725736 7.010732 -0.035928
-0.455917 11.464116 0.599964
-1.977799 9.521302 0.436811
-2.815872 9.090423 0.697291
0.685742 7.416181 -0.294018
0.991847 7.857730 1.431358
-0.176860 7.520800 0.253603
-0.689764 4.858758 0.988367
1.135675 5.270375 0.167718
-1.067319 2.661882 0.447235
-0.803685 12.739519 0.306240
-0.969193 4.203441 -0.611580
1.274201 3.117035 0.360372
0.397101 1.816987 0.578943
0.845609 7.651404 1.040667
-3.554828 6.994052 -1.865951
2.434934 -3.980837 0.333727
-1.707556 7.237947 0.684586
2.893634 7.472142 1.321017
-0.828588 1.289479 0.786438
-2.553543 -4.606682 1.476597
1.533154 6.347215 1.043980
-1.677094 -0.685693 0.704405
-0.451641 12.702282 0.782131
0.844609 2.864636 1.185980
-3.568421 7.418922 -0.307926
-1.615365 8.954085 0.603884
0.850213 9.879424 0.620801
-2.085419 10.307886 0.246364
0.086127 9.461459 1.649684
-0.777133 8.490144 1.100783
-2.609973 -3.924397 0.759253
-1.513191 6.481373 0.887307
1.570514 5.521604 1.004461
0.155128 10.925261 0.643631
-0.802326 3.533235 -0.252067
0.539522 2.530472 0.546821
-1.954195 -1.470928 1.342098
-0.064293 13.647409 -0.263078
2.137206 10.347680 1.022837
-1.008801 5.839914 0.347933
1.025449 0.733900 1.177431
0.228432 4.874827 0.651086
-1.414657 7.960254 1.120975
-3.540554 7.321056 -1.411387
1.563803 0.911254 0.219491
-0.049884 8.848827 0.415506
0.290421 2.461777 1.079111
-0.980110 9.181649 1.188261
0.135683 3.987403 0.018981
-0.550912 5.366912 -0.594926
-1.853843 9.895875 1.138566
-0.133377 8.246373 1.218610
-0.698745 4.353441 -0.309268
0.345998 12.920048 0.629308
2.933501 7.377668 0.883728
-2.167765 0.000115 -0.006995
0.825821 8.100596 1.745586
0.743173 2.810576 0.297077
0.541985 5.530114 0.568833
-0.632715 3.154789 1.160897
-0.558453 8.458557 -3.769743
-0.657808 5.897057 1.348430
0.732504 6.550087 0.787253
-0.086865 7.932752 0.264662
-1.922130 4.670116 0.387985
2.321287 7.976816 1.231309
1.971998 8.799419 1.215730
1.259882 3.784314 1.381782
0.075896 12.035883 -0.274430
-1.739275 10.001435 0.850733
-0.077064 5.601688 0.749006
1.165954 1.590760 0.130579
-0.354314 2.909550 0.704434
-1.132282 0.619391 0.951772
1.527732 7.118233 0.857398
-1.369025 7.172402 -3.799153
-0.744909 7.078894 -3.026592
1.760728 7.844114 -3.075267
1.862103 1.361965 1.012245
-0.454077 3.573813 0.345934
-0.416015 9.187631 -0.221902
0.558499 7.149393 1.690246
-0.109199 12.180308 0.719313
0.246793 12.515484 0.375421
0.713269 5.755472 1.353317
-2.163167 -1.110315 1.377328
-0.269344 6.655616 0.864133
0.078474 8.258874 0.103396
-1.767011 7.117659 -3.130665
-0.621552 8.819612 1.642943
0.242245 5.959477 0.071988
-0.775552 9.214495 0.817811
-1.055307 8.087564 0.079238
-1.712982 0.546430 0.975450
-1.778093 4.660976 -0.006827
0.261768 8.717869 0.615927
0.789800 12.928237 0.163567
-1.222034 6.798070 -3.830936
-0.666290 5.521915 -0.228369
-1.931762 1.327433 1.164714
-1.699564 2.870112 0.250056
-3.119168 8.812904 0.408698
1.176859 4.894033 1.462173
0.527351 10.382648 0.790273
1.876419 10.512960 1.213558
-3.768021 7.982806 -0.032437
-0.997074 4.930092 0.750975
1.159315 10.137486 0.465257
-2.062617 -1.297307 0.361454
1.434009 6.743017 0.475835
1.213663 10.834466 1.009178
0.819563 8.253964 0.618113
1.258590 3.409349 1.342357
1.543901 3.171610 1.173610
0.015390 8.411128 0.869091
-0.329801 7.577468 -4.279069
-2.230127 1.799318 0.251657
-2.805365 -4.561055 -0.697950
-0.802330 9.145308 1.566934
-2.239082 -2.533935 1.125493
0.996883 10.123965 1.644550
-2.032916 3.890859 0.342442
-0.277375 13.022883 1.258002
0.968756 0.362314 0.887111
-2.023344 -3.941779 0.860613
1.573874 4.741908 0.029325
-3.819131 7.468517 -1.337166
-2.111602 1.426640 0.006705
-1.493065 3.187667 0.627179
0.547467 4.604545 1.758879
-0.872435 3.433559 1.264292
-2.281308 -0.008096 0.849277
-0.502280 8.538225 1.399924
2.251593 8.726447 1.118179
1.112259 5.110557 -0.279194
-1.281793 6.724100 0.711261
0.043581 13.828088 0.421762
1.143676 4.242545 0.989976
0.252250 5.666654 -0.624001
-1.635139 2.627200 0.786975
1.177119 4.968038 1.053327
1.584106 10.253241 1.027588
-0.664289 5.592355 0.285021
1.008433 8.790487 1.520996
-1.506343 8.613783 0.046954
-0.894655 8.374186 0.742799
-0.406731 2.209151 0.411236
-1.098703 5.585909 -0.107915
0.423774 2.964879 0.556305
-0.495198 6.421129 0.248562
1.671263 8.988535 0.788298
0.179775 3.614656 1.475999
0.663598 10.044748 0.944513
0.010883 7.354087 0.639988
0.036887 7.976918 0.912206
-2.027518 -0.733739 1.452191
-1.139078 0.261068 0.350961
0.258415 11.512108 0.115943
-0.981691 3.537847 0.444007
2.118775 7.218693 -1.807014
-1.267704 7.760919 -2.943949
0.314569 9.985213 1.184763
-1.370546 5.344487 -0.338248
1.583397 9.815265 0.874392
0.541350 6.014994 1.037625
0.692934 5.358202 1.377334
-1.008603 10.307987 1.046824
1.322948 -0.826605 0.275081
-2.210095 -4.592854 0.992554
-0.245246 13.032898 0.977082
-0.867896 6.826761 -0.357679
0.300024 5.232171 -0.639672
0.638974 1.112718 0.638198
0.438406 8.550678 -0.153195
-1.416044 2.144038 -0.453551
1.358712 4.920916 0.695722
0.314845 6.587538 0.446354
0.363772 9.107753 0.617198
0.650997 5.985407 -0.103978
2.054980 1.889123 0.610056
-2.239472 6.678145 -3.444061
1.775418 1.059541 1.249221
2.047094 7.607834 -1.863891
0.113484 4.238557 1.104294
0.602921 9.246970 0.319097
0.915979 -0.751237 0.572508
0.663310 13.445579 0.523554
1.999572 -4.164363 1.311370
-0.809403 2.417595 1.109094
0.666581 7.049821 1.339989
2.549792 7.141731 -0.458500
-0.511553 2.365873 0.744471
-1.055634 2.632822 0.821634
1.052996 4.856680 0.034270
-0.942621 8.323561 1.503560
1.199258 9.641371 0.669352
-0.208427 8.025711 1.605466
-0.225579 6.963196 -2.950827
0.458499 12.760789 1.109976
0.185697 8.652931 0.162393
1.122047 3.824350 0.654971
1.376936 5.701694 0.250965
-1.845876 0.413044 0.441860
-0.980471 7.368447 0.448132
0.657888 4.447940 -0.507952
-0.440835 10.148117 1.120193
-1.816482 2.431442 0.484021
0.919969 2.291521 1.327067
1.243882 0.197492 0.077826
2.651357 7.417275 -0.307649
-2.266353 -0.023099 0.349782
-2.191570 2.557080 0.419301
1.252463 1.473644 0.900354
-1.175758 4.089302 1.469350
0.740631 3.655059 0.109139
-0.361603 3.883457 -0.661811
0.226847 13.708821 -0.025237
-0.668992 3.117482 -0.152943
1.583083 -1.019704 1.504917
-3.837578 7.661010 -0.447472
-2.163995 -1.886820 1.207192
-1.462330 6.203595 -0.162079
0.130217 3.844998 -0.529730
1.622469 8.621004 0.559822
-1.383482 4.795579 0.532062
2.088188 -1.383283 0.714862
1.118919 6.643869 1.421944
-1.619647 4.024361 0.303646
-1.526219 9.122120 1.155115
1.825620 9.841757 0.598457
-0.491629 8.157232 1.017998
0.345382 9.267795 1.328432
-1.517139 8.220542 -3.990418
0.560156 3.492610 1.509759
-1.036495 9.787606 -0.042046
2.178088 -2.185583 0.872247
0.509853 2.539023 0.180560
-1.582401 7.388836 -2.889366
0.001532 4.791626 -0.034335
-1.145346 10.215437 1.416666
0.207189 7.666045 0.332615
0.738052 12.756425 0.580078
0.762008 7.275393 0.146995
1.753853 4.011121 0.993002
-1.544827 7.945074 -3.753220
1.309239 2.282085 0.402329
-0.793080 13.196623 0.919865
-1.366172 10.156051 0.935635
-1.330567 7.087778 -2.964783
-1.498434 2.359915 1.168814
-1.057630 3.124306 0.499697
-0.149697 11.499091 0.821636
1.256173 6.240419 1.269319
-0.052926 13.375464 0.023308
1.281657 9.466465 0.269757
0.887858 1.600911 1.135815
1.004980 5.086609 0.463979
-1.451374 1.997056 1.217920
-0.662621 3.492421 0.872031
0.949788 4.629504 1.138059
0.768587 1.722462 0.716837
-1.895213 3.181057 0.586219
0.902379 5.361746 0.712387
1.056895 10.753726 1.343566
-3.501096 7.308823 -0.707318
-2.266263 2.151299 0.485292
-0.883310 4.526482 0.868990
-0.937116 7.825797 0.398319
1.328413 6.802855 0.129537
-1.487315 4.596549 -0.364595
0.880518 9.469152 0.092159
1.377221 7.611585 1.379391
1.620422 0.621818 0.514312
-0.585524 5.450649 1.765785
-1.970436 -0.795292 0.300639
0.139950 4.597960 0.330462
1.003028 8.546672 0.377626
0.528068 8.839713 0.337565
0.239814 7.125874 1.417844
-0.141741 6.039359 -0.023513
-0.207666 9.608524 0.212522
1.562671 7.504869 1.023091
0.512160 2.782704 0.946596
0.452636 5.198352 -0.087823
-0.183167 8.935816 0.081775
-1.398678 2.766475 -0.141955
1.132597 6.513200 0.984760
-0.918791 5.688221 0.681975
-1.074483 6.034621 -0.278940
0.137101 7.336477 1.777130
0.433020 9.183845 1.750357
1.315829 8.044107 1.460714
0.916190 9.764794 0.982512
0.085854 12.445017 -0.349395
1.633686 0.294667 -0.101751
-0.801803 8.572385 -0.276514
0.566736 9.692005 0.399549
-1.635745 7.826504 -3.428633
-1.678012 9.858982 0.451036
-0.268208 9.955399 0.782474
-0.437095 7.926112 -0.318136
1.248722 9.091894 0.197687
-0.029156 12.723932 0.211219
-0.241863 4.932820 1.027223
-0.085593 7.271759 1.313915
-0.213632 4.609006 -0.710500
-2.007167 -4.616075 1.385778
-1.526084 9.782666 0.080157
0.045567 13.264673 1.244321
-0.647858 2.720492 -0.018182
-1.121319 4.357833 -0.204425
-1.027561 10.796818 0.483495
-1.074009 6.958263 -3.548244
-1.629798 3.764572 -0.354376
-1.979234 9.180138 0.501566
1.546864 9.898555 1.279187
-0.638805 7.110858 0.329593
-1.453900 2.546689 0.301310
0.592882 3.282933 0.220366
0.160732 2.798956 0.855314
0.819917 6.193755 0.833839
-0.840427 4.136567 0.021890
-0.910504 9.005246 0.471948
-0.625994 13.218183 -0.097657
-1.383188 0.977221 0.382362
-1.006060 5.146637 -0.187114
1.722108 4.595488 0.370713
-1.617231 0.312182 -0.288366
-1.377514 7.683009 -2.623766
1.451121 6.328393 0.630575
-0.459073 4.876525 1.398800
0.466047 1.444799 0.707732
0.027556 3.459439 1.106027
-0.813952 7.735376 -0.307429
0.532574 10.339301 1.238190
-0.142160 6.889262 -3.827766
0.330069 5.539866 0.194975
0.833062 10.987063 1.029403
1.289842 2.538124 -0.383985
2.046899 -0.141770 0.399980
-0.986998 0.974864 0.632286
-1.532071 2.949450 -0.468134
1.719668 -0.807265 0.147007
-3.068741 8.857140 0.039271
-0.579222 12.477619 -0.155496
-0.939429 8.083603 1.081160
0.494826 7.940704 1.699819
-0.944006 2.782276 -0.438512
-0.525424 1.829650 0.349597
-3.706559 7.978037 -0.441178
-2.212580 0.297869 0.558291
0.146447 7.003021 -3.664556
0.334262 12.149660 0.696307
0.815229 9.395318 1.741750
2.511879 7.397428 -0.679919
-0.412251 7.703304 0.870332
0.473168 5.709245 1.687725
-0.669120 13.538986 0.173161
0.175743 7.252859 0.260943
-1.037610 3.057179 1.285825
0.252240 2.631393 -0.138587
1.879767 1.417836 0.096747
-0.279474 5.410219 -0.251864
-1.206094 7.936032 -0.236280
-1.817896 -1.773926 1.103212
-1.278332 7.268234 -4.172210
2.314471 9.282164 0.652759
-0.049251 5.931818 -0.634701
-0.808058 7.555147 -3.225180
0.734849 3.954046 0.449022
1.349906 5.314759 0.496947
2.216695 9.772575 1.415831
1.814268 -2.144423 1.253967
0.069681 6.951145 1.790405
0.502163 8.793419 1.714807
1.609398 2.743271 -0.290109
2.194557 -3.091104 0.978412
-1.747388 1.657004 0.137515
-2.234664 7.348184 -3.661359
-1.298089 7.306251 1.317606
-1.477787 0.308446 1.276740
0.015454 12.340507 1.170608
-0.682194 7.211392 -3.805602
2.222251 9.685052 0.655882
-1.137138 7.302346 0.915123
0.091858 12.091371 0.369685
-1.345937 0.282096 0.009429
-0.812927 7.573246 -3.629891
2.898565 7.274992 0.283492
1.318107 1.796329 -0.245736
-2.917234 8.457086 0.244052
-1.300238 8.820971 0.354757
0.205102 2.457578 0.684346
0.573469 6.148377 1.413029
-1.023935 3.742918 1.461135
0.227376 8.404579 1.383216
-1.040226 1.850711 0.537258
2.036537 0.663436 0.536755
0.881401 6.858601 1.714066
2.566454 8.668853 1.362781
-1.354449 9.391402 1.288371
0.895995 10.721332 0.715740
-1.320503 7.148163 0.651352
-0.702514 8.778167 0.775465
-1.656471 3.279048 0.256142
-1.108745 6.993476 0.333372
2.682314 -4.042606 0.460232
0.643546 6.960940 -0.375689
2.224101 -1.137882 1.043429
-2.727899 -4.268850 0.766491
-0.211643 8.736203 0.714562
-0.857914 3.027346 0.805628
-2.177169 -3.681859 0.945189
-1.800508 8.955123 0.902621
-0.881367 2.720127 1.302849
1.993841 -3.243844 1.334618
0.301956 3.621408 0.073425
0.915336 2.492915 -0.370821
1.551924 1.379267 1.262863
0.640338 9.454732 0.721491
-0.258831 4.522986 0.260422
-1.693736 4.981368 1.007556
-1.405942 0.963439 1.064392
2.855735 -4.643994 0.208680
-0.221414 3.253129 0.459723
0.413580 3.855582 -0.260821
0.223979 7.992930 -3.728552
-1.922380 -0.293003 1.504415
0.430972 8.374597 0.346579
-1.085817 5.004017 0.215608
0.623640 12.488131 0.658634
-2.960157 9.202474 0.307529
0.903653 1.339471 0.706522
1.329130 0.650069 0.869540
0.806418 10.512065 1.540934
2.082713 -0.124849 0.907118
-1.726083 7.360559 -2.564612
-0.501533 4.133324 0.334574
2.026200 2.279231 0.535680
-1.777538 10.301380 1.130641
0.330170 6.176591 0.384334
0.939915 5.525200 -0.328391
0.912485 4.907854 0.781008
-0.873938 12.867813 0.800367
0.829807 6.792073 1.070720
-0.395767 9.172676 1.594746
-1.262248 6.718783 -2.795948
-0.947702 4.360271 0.468966
1.438812 -1.460607 1.263365
0.110905 6.631142 0.949941
1.446867 3.815493 0.128457
-1.329432 9.712555 0.574515
-1.712018 6.737797 -3.691159
-0.392588 12.573955 0.174275
-1.728907 0.681094 -0.335292
-0.684784 8.906093 1.190948
0.154885 3.593494 0.741858
0.363067 8.192090 1.060882
-1.396607 8.085270 -3.574160
0.210442 7.396656 -0.416398
0.439261 3.634879 0.391329
-0.711507 7.459173 -0.081994
1.843331 9.905101 1.555433
0.553162 7.478851 0.380252
-0.182019 12.259595 -0.096953
-1.347118 2.880124 0.796707
-1.793557 6.774058 -2.832803
0.365511 7.224975 -3.553030
0.950361 4.734274 -0.465791
1.815648 -0.777305 1.155473
-1.021554 3.717245 0.054950
-0.987361 5.405182 -0.498855
-2.065446 7.025914 -3.405137
-0.273691 3.931741 0.586417
-0.322936 13.762641 0.099379
0.790833 9.050795 0.699863
-1.929764 -0.369412 0.172964
0.947589 5.952866 1.128179
-0.976842 6.581831 -3.372459
0.850801 -0.316379 0.492092
1.613567 9.045866 0.455318
-1.317159 3.759399 0.280961
0.088308 12.835900 0.962727
-0.333371 7.108273 -3.359871
-0.809565 13.150575 0.220207
0.541658 12.194121 0.345597
-1.240345 -0.130428 0.829172
0.832283 5.250472 -0.084407
-2.405179 -3.886482 1.070101
0.841491 4.035722 0.816898
1.032464 5.249255 1.542756
1.416535 10.028884 1.621022
-1.302001 2.330916 -0.106056
-1.918921 1.494484 -0.136521
2.065056 -1.691692 1.473681
0.740403 0.370875 0.494439
0.539694 12.048655 -0.303817
2.450232 -3.703108 0.621466
1.567266 -0.130203 -0.034246
-0.057803 8.118476 -0.308319
1.752409 -0.205634 0.692540
-1.034321 2.059086 -0.423926
0.119934 6.326215 1.345042
-1.388725 5.751428 -0.270544
-0.728972 9.499245 -0.140003
-0.668216 1.598090 -0.004511
-1.088057 8.441567 -3.847639
0.892485 1.240373 -0.110861
1.677350 5.021114 0.325333
-1.134350 1.956572 -0.008374
0.124417 4.630510 1.808176
2.302986 7.453888 -1.615867
2.413072 7.399249 -1.087044
2.419461 7.225669 -0.469245
0.398808 4.167040 -0.616169
1.284549 5.506977 -0.090852
-0.606028 10.872248 0.401043
1.264525 3.203119 -0.094573
-0.474403 6.603014 -0.481990
-0.480308 7.566080 -3.948375
-0.479850 2.119964 0.043025
-1.247336 6.201119 0.481395
1.844336 0.674248 0.109303
1.229738 1.995538 1.359045
-0.634144 8.417443 1.692409
-1.171122 5.124025 1.482052
-1.298267 2.476762 0.815747
-1.479889 7.396452 -0.023912
-1.617402 5.008124 -0.162823
0.758478 2.208975 0.134619
-1.656323 8.608717 0.827150
1.189934 3.044051 1.211013
2.571586 -4.626030 0.625615
-0.284223 9.585784 -0.121844
0.495310 9.645969 1.132646
1.862665 0.261045 1.404956
2.154095 8.742435 1.544706
-1.552522 6.572108 0.138830
-0.074227 11.657366 0.389025
-0.456181 6.687609 -3.611977
-3.369010 8.533380 0.146086
-0.893269 1.702587 0.846466
0.041524 6.633664 -0.255511
-0.845775 4.765452 0.391982
0.247523 13.434151 -0.345693
-1.619649 -0.274786 0.586015
-0.223573 6.757161 -3.164548
-0.888550 9.582193 1.195829
-0.823926 2.040741 0.254574
-1.116599 0.944288 -0.161400
-1.275244 7.331521 -3.564558
-1.442955 0.571330 0.553471
2.752916 8.003864 1.364280
1.613471 -0.757696 0.495576
0.735252 6.038171 1.714840
0.004511 11.574017 -0.184834
-0.428857 5.952840 -0.319421
-1.797798 7.981145 0.445046
-0.734858 4.870642 0.015334
-1.499693 6.131316 1.050235
1.415201 7.187070 1.277460
-2.253996 1.376688 0.901894
-0.493040 6.905515 -3.986639
-0.372032 13.325312 0.271867
-0.170750 7.423916 -2.920201
1.134160 -0.512489 0.331366
1.190906 5.577441 1.384361
0.879159 3.254155 -0.131764
-1.500440 8.481084 0.407058
-3.117669 8.433760 -0.099825
0.198831 3.299634 0.360065
-1.564977 9.327311 0.806970
1.313416 9.114300 0.868808
0.734211 6.593762 -0.329664
1.235276 10.423866 1.536890
-1.219992 -0.101689 0.334155
-2.383278 -4.595650 0.573354
-1.043026 6.555526 1.428242
1.529653 2.509260 0.071074
-0.436722 4.751368 -0.394350
1.558298 0.697803 -0.172197
0.418728 11.070906 1.057036
1.628318 1.559577 -0.175716
1.461552 -1.329793 0.833258
2.382662 -4.351587 0.303042
1.879745 0.017108 0.114453
0.706261 4.566588 0.107785
-0.117274 7.839023 -4.154981
-0.327857 8.117386 0.019028
0.160323 8.186705 1.754501
-0.483353 3.859130 0.958194
-0.907231 2.327444 -0.019586
1.704176 0.828734 0.931959
0.507867 7.530968 1.689057
1.758164 4.822603 0.664033
1.369189 2.310596 1.222123
0.037484 7.440380 -0.080207
-1.707730 7.344590 -3.433838
-2.728720 -4.221893 0.272799
1.733468 2.883366 0.962932
-2.109996 -4.256586 1.598839
0.015058 7.471715 -4.119841
-1.260075 -0.650465 0.929557
-0.789766 3.370338 0.147219
-1.547187 -0.385439 0.287227
0.669811 6.679438 1.417131
-1.839843 5.065317 0.217197
-1.661132 7.750060 -3.059110
0.930332 2.447399 0.240192
-1.300416 4.417359 0.988254
-0.107315 5.075412 -0.372087
-0.532189 12.105672 0.049849
1.603209 3.293836 0.540122
-1.188012 7.528974 -0.261879
-0.784636 1.233446 0.332428
-1.023176 5.402940 0.232959
-0.921693 6.932303 0.681031
2.765982 7.715082 0.963619
-0.107023 5.406096 -0.637310
0.172182 9.488735 0.583273
-1.512199 6.993935 -2.605140
-0.132049 12.877855 -0.512966
-1.356356 1.575689 -0.032740
-1.058732 2.685833 -0.037974
-0.397231 5.725216 -0.590836
-2.862597 6.959855 -3.428943
2.175633 -2.837945 1.397378
-1.647291 4.574316 1.139692
-2.005887 1.922225 -0.037174
-0.365740 12.528655 -0.491990
-0.762276 5.815792 1.707089
-0.667470 9.647597 0.216868
-0.499706 5.828376 0.686312
0.065398 6.819110 0.176596
-1.158657 9.474680 0.917766
-1.571102 2.550053 -0.422449
1.850680 -2.424343 1.033328
1.912092 -2.515293 1.472173
-2.364274 7.401657 -3.133035
0.918522 3.975325 -0.151873
-0.872688 6.253366 0.262136
1.006710 7.122425 -0.140804
-0.552422 9.888560 -0.035850
-0.548740 9.906036 1.510300
0.559249 4.001954 0.093565
-0.728058 6.245803 -0.353928
0.963051 5.302738 1.114741
0.895854 10.273172 0.795272
1.046505 6.959203 0.300277
0.863994 0.054181 0.353535
-0.069866 8.118896 -3.946847
1.165324 3.628018 -0.117194
-0.811584 8.165414 -0.271625
0.589322 2.355871 -0.227194
-0.494689 11.261730 0.301587
-1.553362 5.415484 1.069378
-0.409655 8.368892 -0.287458
0.569849 9.705011 0.052577
-2.259042 -0.344623 0.145546
-0.032542 4.374598 -0.052494
-0.939162 8.440355 -3.479577
1.446199 -0.129830 1.002846
1.917883 0.341150 0.322309
-0.114271 3.819124 1.113985
2.083639 0.964963 1.091181
2.157102 1.099300 0.727992
1.606105 10.208890 0.627713
-0.239084 5.744791 0.344072
-0.348586 8.783981 -0.278354
-0.660850 3.806814 0.603371
-0.411621 3.203279 -0.501542
-1.401102 6.498991 1.277937
2.635354 7.679919 0.685417
-0.808173 12.581267 0.684194
-0.582738 13.520856 0.866756
-0.067177 4.204656 -0.647851
0.549378 2.739038 -0.362526
1.113457 2.337652 0.998359
1.446938 5.110297 -0.014405
3.202999 -4.586162 0.027566
-0.623982 3.712910 1.403985
-1.193839 3.631587 1.049410
1.138864 4.179579 1.437217
-0.643914 9.809335 0.568174
0.460760 6.962842 0.301138
0.683084 8.657795 0.649551
-1.392519 3.791009 1.368563
-0.833795 2.082002 0.995495
0.416197 7.341324 1.004999
1.010347 9.485250 1.317534
0.668874 5.616347 0.969729
-0.805739 2.343828 -0.431481
-0.690282 9.534508 1.564282
1.483808 4.818377 1.203961
0.378979 6.533097 -0.518711
1.609478 9.243988 1.544676
0.926589 3.594586 1.441731
-1.935670 7.070958 -2.698689
-2.159592 -0.692151 0.065202
-2.323774 -1.516415 1.151339
-0.358352 6.515306 1.691206
1.046301 6.752769 -0.133535
1.927516 3.088325 0.291290
-1.889730 3.880130 0.725364
0.976348 8.315163 1.443318
-1.393808 10.469192 1.233630
-2.213689 -3.296396 0.938444
2.236808 -1.919023 1.179774
-2.975222 -4.598142 -0.405582
0.703834 4.245871 1.646320
-1.945027 2.780870 0.654756
1.987752 2.216912 0.920862
0.046651 9.724256 0.903440
0.471972 6.471712 1.143342
0.816386 8.535278 1.754587
-1.907074 4.294737 0.158931
-1.069751 8.795891 1.064181
0.711159 3.980285 -0.559851
1.642698 4.368921 0.083190
-0.830441 6.106238 0.677686
0.884490 9.123737 0.021405
-0.406120 3.202533 0.092050
1.775559 0.475484 0.880591
1.390776 1.864249 0.495581
-0.396396 8.121035 -4.159610
-0.555283 4.561807 0.537326
0.482903 10.099048 0.524323
1.778996 4.169078 0.362232
1.363802 7.599463 0.190728
1.297959 1.363228 -0.227193
0.373671 11.810863 0.391363
-1.401441 8.332944 -3.267080
-1.649114 10.372830 0.739910
0.731712 10.068573 0.247013
2.318597 9.368307 1.452666
2.040050 -0.119059 1.298901
1.496440 1.341482 0.156713
2.721740 8.511333 1.204022
-1.734060 8.245616 0.685225
-0.025484 11.274690 0.384199
-0.101931 9.887871 1.535635
-1.267229 8.142953 1.423208
-0.186529 6.030455 1.379627
-2.344888 9.752567 0.255958
1.126340 2.863402 0.562241
1.403704 4.138518 0.347389
1.106163 1.236914 1.166378
-0.255612 7.820056 -3.303251
0.174599 4.923533 1.073807
-0.124850 3.205075 -0.283505
-0.229316 8.333943 -3.612903
-0.102409 3.452635 0.106926
0.036262 13.474425 0.408719
-1.106241 4.592227 -0.593640
2.114194 -1.259870 1.440890
-0.761805 9.965082 1.140213
-1.435487 8.049710 -2.856930
-2.047333 -4.225918 1.155274
-0.739724 6.527961 1.692885
-1.950416 -0.888407 1.124093
1.617101 3.606748 -0.161852
-1.796082 -1.586237 0.739565
2.078118 -3.446497 0.913645
-2.431981 9.329871 0.992059
1.076293 1.959204 0.084077
0.091232 7.088863 0.945307
1.650852 5.094040 0.983787
-2.673056 9.504087 0.281921
-0.409562 4.190573 -0.028192
2.661784 -4.296652 1.132761
1.060788 4.257944 0.552679
0.011801 7.548683 0.999697
-1.721785 3.119352 0.995327
1.966342 2.618771 0.786830
1.464603 4.043885 1.224332
0.807148 4.264716 1.185345
-0.008229 4.580701 1.009931
-1.826505 7.723704 -2.747297
2.110165 7.530731 -2.213003
0.786839 4.477290 0.777452
-2.322821 -0.363723 1.060154
-2.214536 0.693967 0.383888
0.004004 5.404643 0.390526
-0.572991 6.882413 1.743941
2.511829 7.633061 1.085535
2.701704 -4.610183 -0.552651
-0.594264 5.104630 -0.319476
-0.251705 9.568426 0.640909
-1.759482 -0.734263 0.158083
-0.276898 4.667562 1.775415
-2.769659 8.607503 0.827725
1.514367 0.423807 0.216248
-2.715224 -4.604902 0.306274
-2.600206 -4.230360 1.035870
-0.257300 7.284726 -3.722677
-1.555291 3.613422 0.041721
-1.002958 7.901457 1.486759
-0.581013 12.506110 1.074031
-1.371977 3.978317 -0.095679
1.721719 1.253365 0.493238
-0.521797 7.222566 -2.735904
-2.762290 9.525119 0.732598
0.024642 3.195057 0.732830
-3.419309 7.759790 -0.256303
0.104444 13.229378 0.794128
-0.354108 10.588395 0.195872
1.957759 1.826155 0.177574
1.323591 6.050922 0.077941
-1.236224 4.781090 -0.117160
-1.527891 7.578913 1.036065
-1.569610 9.437704 0.378776
0.699829 5.374996 0.261902
-1.992621 8.011334 -3.818712
0.644363 8.616033 1.352328
0.926557 3.353851 -0.495086
-0.804949 8.621024 0.374488
0.394009 13.106216 1.136556
1.506889 7.456510 0.600537
-0.244311 5.373181 1.059843
0.244545 7.537646 1.377045
-0.066943 4.983001 0.329487
-1.444545 5.110486 1.248909
-0.954328 5.887908 1.054913
0.869591 0.734122 0.743289
2.144542 8.347371 1.413802
0.380678 4.571152 -0.243740
0.872503 3.271724 1.283875
1.683438 2.071197 0.351799
-1.087130 5.170191 1.061922
0.555946 12.406101 -0.374836
0.177471 8.053667 0.537034
1.934995 3.042956 0.687758
-1.226079 2.103779 0.840793
0.561909 3.170778 -0.492911
-0.013712 5.622325 1.348055
-0.010367 11.865414 0.084821
2.815391 7.297384 -0.162284
1.091753 5.937519 1.500318
0.254528 2.816226 1.288437
-0.473575 8.975901 0.433566
-0.315996 10.267521 1.459115
-1.220704 9.288128 0.563052
-1.561168 7.567630 -3.806808
-0.044420 8.653601 1.250560
-1.242116 10.834149 1.109593
-1.143468 5.274925 0.605025
1.107002 9.083545 1.277384
-0.617833 10.513397 0.574019
-0.440715 4.887174 0.265020
1.259310 2.677666 0.321414
-1.645674 4.233663 0.845698
-0.198649 6.538761 1.294616
-2.087143 8.066295 -3.519482
-1.516436 -0.720736 0.528903
1.662049 5.630326 0.621242
-0.921870 7.975959 -2.807722
1.465912 0.163500 1.391738
1.097246 2.625578 1.327802
0.158004 8.628585 1.744102
2.460491 8.131814 0.931465
-1.675650 4.231980 -0.232250
-1.441366 4.768171 1.336030
-1.634971 5.765655 0.854746
-0.053954 7.846967 -3.612048
1.844707 3.646156 0.870391
0.815816 2.795513 0.748505
-0.658363 8.408980 0.041258
-1.240370 8.474005 -3.627701
0.657870 3.156517 0.922499
0.468429 3.349453 0.679704
-2.038821 2.713286 0.113178
-1.842165 8.777629 0.334214
0.032879 6.371168 0.666289
1.513304 1.190141 0.878985
2.420612 9.497851 1.060916
-2.231290 8.906056 0.216541
2.200353 -0.774116 0.836085
-0.273683 13.029910 -0.018461
0.657128 12.683262 -0.150648
-0.440338 4.557591 0.919303
1.204538 9.265498 1.644018
-0.879548 6.280303 1.180383
0.400344 7.137269 -0.050416
-3.524971 7.029381 -2.667041
-0.264266 12.161460 1.053711
-0.324068 7.252640 1.653711
1.479332 7.135145 0.454208
-0.330471 7.294486 0.948640
2.019614 -2.107366 1.441244
-0.359505 9.727833 1.177644
1.429845 4.093290 0.737842
-1.004918 4.106247 0.793659
1.259529 9.219104 0.583833
0.216864 12.104964 -0.587154
1.825728 3.910479 0.607245
-2.761403 8.711394 -0.014684
-0.748789 4.612410 1.292325
-0.215624 2.830459 -0.140024
-1.776235 5.444238 0.355030
0.552295 4.706975 0.478387
0.237035 9.063822 0.191191
0.634568 12.566821 0.210250
-0.440673 6.177086 -0.588286
-0.918964 6.490271 0.644289
1.468871 10.615156 1.309494
0.415164 8.015013 0.122218
-0.183085 5.421660 1.733919
0.416582 8.323213 0.711457
0.442621 3.895640 1.616225
-0.782677 10.518297 0.203784
-3.576320 7.571989 -1.049455
-0.846537 6.725071 -3.750536
2.134735 -4.368403 1.655887
-1.617282 5.832312 0.058307
0.051903 12.868768 1.355664
-1.527235 1.924688 -0.129571
1.334193 4.877541 0.329531
-3.489591 7.831548 0.167154
2.524154 9.042643 1.077479
-1.025487 3.439617 -0.618775
0.112307 6.918681 0.575767
-1.394249 0.678649 1.239998
1.239514 0.593919 0.530313
0.041841 11.182864 0.012110
-0.624223 3.211116 0.524494
1.028481 6.531327 0.226351
0.162767 6.097908 1.029263
0.622198 1.364406 1.069669
-0.691011 7.221142 0.719396
0.355347 10.578537 1.461668
1.554217 5.971388 0.409243
-1.521629 8.202921 0.080532
-0.517318 9.347774 0.498301
-2.260616 -0.405248 1.208282
2.844407 7.486456 0.524777
0.608691 4.234480 -0.198907
1.594506 1.620278 0.816597
1.792553 -1.174889 1.129528
-1.757208 8.322473 -3.394972
2.151690 -2.663905 0.933865
0.360048 13.644050 0.676991
1.866270 10.004857 1.090887
-0.667339 6.705796 -2.926517
0.044536 5.217662 -0.004325
-1.857207 -0.381438 -0.057270
-0.020222 4.646314 -0.365657
1.284354 10.483656 0.681194
-0.182596 7.643431 -3.769916
-1.296047 7.596232 0.666392
-0.424758 10.248957 0.055695
-0.106059 9.262283 0.324985
-0.336860 8.214420 0.364884
-0.530208 6.609660 -3.257397
2.238877 -3.463510 1.337225
-0.820495 6.700452 0.275422
-0.812616 3.831108 -0.655406
1.314216 10.183818 1.260855
1.366331 8.901230 1.550800
0.193501 13.555925 1.007673
-2.211479 7.394970 -3.337991
0.683114 8.554926 0.155481
1.280273 8.827660 0.589865
1.023955 5.584582 0.418122
1.046108 6.802555 0.656977
1.213323 0.258244 0.457172
-0.208430 9.389478 1.024372
-1.790955 2.181486 -0.282874
-2.134793 9.877713 0.605203
-2.158826 -1.748208 0.504255
2.152026 9.176646 1.101337
-0.207536 6.269398 1.013357
-0.589041 6.165429 -0.044965
1.742516 0.101106 1.049855
-0.644265 1.543371 0.519783
0.373280 7.747843 -0.313344
-2.608276 6.705638 -3.267412
0.285460 4.968355 -0.331618
-2.047723 3.468171 0.394002
1.428073 -0.307498 1.398344
0.779695 8.423325 0.978529
-1.672578 5.434648 -0.023466
-1.405082 8.026557 -3.217381
-0.611650 6.692890 1.314775
1.563879 1.777311 1.162820
-2.083986 2.382326 0.702566
-2.173222 1.008251 1.029843
-2.142617 2.027185 0.791526
-1.293595 7.682492 1.404475
1.200722 1.863177 0.935084
-1.764572 -1.057948 1.404038
1.121502 9.852526 1.341344
-1.022578 1.618705 0.210881
-2.684235 -4.603557 0.958068
-0.556931 6.069961 0.972008
-0.259874 2.553423 0.506249
-0.324897 4.533625 1.293963
-0.582657 8.842102 0.075142
1.972642 -4.624015 1.561867
-1.486066 1.272557 0.805931
1.192000 -0.149599 0.235068
-1.325739 7.674271 -3.564764
1.770723 -1.379725 1.516756
2.233005 -2.381356 1.225967
-1.670795 3.627771 0.442695
1.568977 10.670767 0.962001
-1.926810 7.676881 -3.562196
-0.559643 9.326602 1.225397
-3.502514 6.885928 -2.338042
0.153646 5.319054 1.072822
-0.491018 4.981296 0.655001
1.185405 8.064347 0.765540
-1.980523 9.949934 0.147463
-2.626348 -4.357816 -0.241424
-1.514986 6.624016 -3.078086
2.041043 -4.243801 1.080950
-0.785479 3.150774 -0.514256
-1.674875 1.582191 1.088320
-0.007081 13.097797 0.327771
-1.704763 -1.123292 0.749549
-0.080403 6.184797 1.732226
-2.231483 8.930714 0.917500
1.551688 9.021696 1.197573
1.293889 9.678578 1.052489
-1.861986 1.066108 -0.194516
0.256498 5.288793 0.661958
-0.512410 5.271630 1.435659
-0.879605 10.160793 0.057702
1.874721 3.413814 0.139236
0.789369 4.930561 1.659564
-1.587132 7.235617 1.006074
-3.521298 7.692238 -0.601494
1.883393 -1.593392 1.137857
-0.192258 10.697475 0.523865
-0.580296 3.524985 -0.621701
-0.032797 11.124699 0.987207
0.278800 5.686503 0.935589
0.564133 10.210712 1.628916
0.872185 8.060059 1.095005
0.133226 12.980407 -0.099887
-0.040105 4.172047 0.299744
1.235715 0.718038 0.203247
-0.537671 4.360138 1.581438
1.700812 5.236847 0.672770
0.956618 4.474148 -0.160252
-0.109494 12.338522 0.158966
-0.498389 8.408110 0.676581
-2.553027 8.578469 0.629531
0.400206 10.400354 0.276946
-0.668622 12.345326 0.297099
0.339151 11.089002 0.319269
1.687165 -1.798632 1.422013
-0.963839 8.890668 0.092316
-1.065299 7.250961 0.052528
-1.133039 7.983515 0.751877
-0.192081 13.487592 1.074268
-0.644108 8.021396 1.704454
-0.258140 11.444847 0.067695
0.192337 6.393220 0.102709
-0.410789 5.418063 0.615372
0.141663 10.247486 1.496184
0.412028 10.707635 0.963763
1.075964 3.857615 0.284902
0.074105 6.559135 1.778071
-0.013859 10.386829 0.138680
-0.445368 8.072413 -3.145167
-0.147199 6.616345 0.437846
1.418100 3.102733 0.791575
-0.388189 8.600963 0.330076
-1.636202 6.872326 0.810543
-1.104857 1.865125 1.181205
0.022604 2.844292 0.468035
0.115152 10.769552 0.242113
-2.001315 -1.306162 1.021054
-0.225231 7.189546 -4.123035
-0.350757 5.822979 1.725652
-0.604441 4.208829 0.740856
0.780920 3.638483 -0.267386
1.799439 7.341573 -3.039857
-1.834249 10.718764 0.691673
0.370434 4.797303 0.067825
-1.892798 -0.503011 1.046597
1.684859 10.291719 1.473249
0.375130 7.588592 -3.720590
0.904447 10.263570 1.246869
-0.326873 10.907784 1.195968
2.241722 8.534298 0.690262
0.720235 4.970149 0.204292
1.416705 4.507640 0.555031
0.891599 4.240840 0.196021
0.364261 7.657444 0.695282
-1.838573 9.161096 0.146975
1.963344 9.503646 1.569789
1.045708 7.459311 0.393057
1.152150 7.957722 0.020926
0.211850 11.322412 0.760794
-1.827348 3.514435 0.864443
-2.941534 -4.571028 0.652352
0.818871 3.559767 0.525986
0.341732 2.911237 0.169268
-0.800903 7.616048 0.715465
0.435636 12.535969 1.103428
0.949222 0.022732 0.728125
1.603948 2.856742 0.534998
0.340563 6.105717 -0.566195
0.071395 7.134004 -3.975933
-1.125230 8.303628 0.406888
-2.287348 -3.632579 0.675955
-1.405466 9.431996 -0.091295
0.529274 3.766690 0.772179
-1.677826 6.952264 -3.493449
-1.436889 3.049739 1.190877
0.869517 3.545776 0.939391
-1.519625 -0.896207 1.079780
-0.287430 9.962903 0.341582
0.224679 3.224081 1.434971
-0.770435 7.415660 1.083303
-1.090759 6.562164 -3.050916
1.591375 -0.395717 0.405353
1.464585 -0.480615 0.099126
0.928799 8.950930 0.366499
-1.470529 4.396656 0.035408
1.201689 3.429514 0.590917
2.377244 7.144814 -0.969368
-1.703459 1.792743 -0.349320
-1.463301 3.158645 -0.092143
0.248828 5.898625 1.341651
-2.206192 -3.025183 0.590535
1.387085 2.175623 -0.321185
-2.497719 8.524440 1.073504
1.190455 1.126491 0.154020
0.021241 6.191614 -0.297261
2.541673 7.251621 0.937591
-0.031405 6.351995 -0.607696
0.346517 4.356505 0.108806
1.928109 9.330588 0.712999
-1.591813 6.502596 0.533947
-0.008807 5.619922 0.021551
-1.831556 3.931571 -0.037451
-0.815792 13.216674 0.545802
-0.542474 4.225138 -0.693436
0.763861 6.212435 -0.409892
-3.076296 -4.561226 0.161255
0.690664 9.938462 1.351765
1.027830 3.161838 0.867069
-1.951116 -2.220531 1.169628
-1.242256 4.010353 1.047137
1.862282 9.236375 1.120861
-2.203985 10.527637 0.569062
-0.960964 9.861395 1.532223
-0.173497 6.471617 0.033082
-1.850431 8.394497 0.328917
-0.935589 8.721105 1.503436
1.158845 8.657727 1.216508
-0.656987 7.672797 -3.019927
0.548114 7.928635 0.465367
0.291402 2.198497 0.392060
-1.620303 -1.342867 1.105894
-0.983406 10.324497 0.582552
0.691487 9.278969 1.060234
1.520436 9.628604 1.602541
-2.322213 -0.747630 1.172554
2.345443 -4.639072 0.255557
-0.668192 12.842151 -0.009125
-1.366220 7.472304 -3.257308
1.851746 0.959069 0.679738
0.148436 10.111950 0.789338
1.314602 2.977449 -0.446564
2.836629 7.128600 1.200297
-0.352774 4.025939 1.421684
0.081895 3.997945 0.735434
0.068470 10.156271 0.402299
1.357805 3.934839 -0.347679
0.470353 5.930084 0.655992
1.858217 8.570964 0.927796
1.634727 9.457400 0.495966
-0.020251 5.027456 1.769177
-0.363072 12.040797 0.324481
1.903655 7.147251 -2.634244
-0.733349 1.958633 -0.249868
1.488159 3.698996 0.816631
-1.674139 5.828475 0.436743
1.786808 3.309453 0.924420
0.579191 8.896076 -0.078860
2.547619 8.553563 0.877874
0.131250 8.903290 -0.164660
-1.652513 10.201168 0.249995
1.668922 2.447072 0.502796
-1.529784 8.326832 1.084205
-2.979829 6.739658 -3.082261
-1.503944 4.814464 0.215448
-0.568891 12.208788 0.683739
-2.084087 10.484436 0.929064
1.085983 6.418248 0.575539
2.190062 -4.654065 2.019618
-1.163436 8.670294 0.637783
1.107809 8.057057 0.366232
0.477477 4.148544 0.850164
1.888475 2.747050 0.023923
1.024535 2.441149 0.648426
-0.415418 5.618898 1.386094
-0.056641 4.366302 1.524306
-1.218990 8.993875 1.461545
2.178043 -0.838125 1.320806
1.852878 -0.419287 0.156387
0.706274 9.087193 1.406060
-2.325094 -3.918835 0.399907
-0.203261 3.565435 -0.505765
-0.422086 7.479263 -0.397526
-1.797344 7.399573 -4.082583
-2.475157 -4.206309 1.540558
-0.244378 3.856014 0.113119
2.006129 -3.682644 1.336136
-2.346477 -2.227172 0.933188
0.239087 7.000902 -0.429187
-0.522894 6.282971 1.367149
0.567378 13.084382 -0.185978
1.199285 7.646011 0.716742
1.744577 -0.368608 1.136526
0.665433 9.549685 1.394691
0.677528 13.007872 0.856495
-0.900461 7.633270 -4.274557
-1.660202 -0.619328 1.385064
0.311831 9.883442 1.615595
1.964973 2.690478 0.419002
1.055488 9.361767 0.907632
-0.913445 8.255434 -4.073653
-0.989206 4.289609 1.185341
-0.412633 3.538794 -0.167728
1.684056 4.689360 0.936638
1.558702 8.182678 -2.399967
-0.947238 4.398156 1.575948
-0.935745 1.633615 -0.277857
0.726896 5.134289 -0.477696
-1.287073 2.956941 0.245581
-0.278052 9.534264 1.513560
1.231085 4.130965 -0.009298
-0.421656 6.307795 0.620166
-2.174405 1.021577 0.549470
-3.749312 7.323554 -1.713941
-1.476311 1.453885 0.412348
0.173235 13.139820 -0.466491
-1.528498 6.888687 0.416430
-0.995495 8.231448 -3.126907
-0.572676 3.926151 -0.307078
-0.827030 2.966121 0.248049
-1.242284 5.972877 0.123634
-1.173004 3.255320 0.951725
-1.756224 5.371436 0.754596
1.456814 2.561005 0.710995
-0.472598 7.824183 0.396625
1.548415 8.250661 0.960089
2.652117 7.769678 1.314723
-1.868819 0.043304 0.086095
0.976748 8.732939 -0.010661
2.346922 -3.887149 1.181959
-2.051485 1.683519 0.971366
1.239131 0.558907 -0.110259
0.150673 11.756399 0.721633
0.801603 4.986048 1.242079
0.391375 6.289482 -0.201300
-1.370187 6.628480 -0.197034
-1.529109 4.175406 1.248813
0.908792 7.816977 0.588609
0.867526 5.820822 0.687737
-0.941345 7.801227 -3.454772
-2.327564 -0.345282 0.608397
0.306663 4.266492 1.715602
-0.995517 3.936033 -0.274772
0.077574 7.593827 -3.214620
0.383137 12.900402 0.252293
0.386238 11.441301 0.460573
1.451203 6.754365 1.194071
2.219513 8.325236 1.033939
-1.610269 6.139130 0.657016
1.929371 -0.940470 1.554497
-2.062205 6.781287 -3.099968
-1.585510 6.205339 0.263989
-0.726415 5.174258 0.399990
-0.049848 7.349803 -3.486312
1.209114 4.598951 0.842307
-0.256349 12.561944 1.279191
1.676123 1.099368 -0.097478
-2.061436 8.057411 -3.204844
0.592051 3.000401 -0.102650
-0.852600 5.336678 0.799552
0.524674 1.765297 1.042795
2.760252 7.483991 0.092159
2.072257 10.175983 1.372151
-1.837532 2.923459 -0.175767
1.398532 6.409454 0.206543
-1.471160 7.290626 0.338253
-3.707082 7.615674 -0.028381
-1.485109 8.740049 1.140277
1.379477 -0.691079 1.389757
-0.645753 10.489708 1.058997
1.024303 5.909277 -0.244443
1.908370 3.486647 0.530131
-1.935628 4.255186 0.544753
1.847288 3.781111 0.242573
-1.806402 1.644354 0.622715
0.693468 2.431971 0.920491
1.743358 1.642308 0.506102
0.382469 4.955003 1.762927
0.065475 7.847778 -0.040364
-0.860891 1.263648 -0.117464
0.560088 3.615159 -0.585233
0.460677 11.888728 0.032675
1.570477 7.849061 0.810400
-0.523905 13.285181 1.165300
-1.933392 -0.010028 0.547281
0.391384 2.131843 0.837638
0.723380 6.229572 0.450157
-0.194107 11.834340 -0.488831
-0.296846 4.336713 -0.376549
-1.548809 2.127932 0.692330
0.237392 4.553294 -0.654186
-1.613286 2.734000 1.088605
0.641685 5.828953 0.301600
1.461637 7.872209 0.419615
0.814027 7.175322 0.965583
-0.226664 8.800146 1.610611
1.050410 7.553907 -0.072731
0.169282 12.470910 -0.671857
-2.295685 -0.695690 0.489536
-0.592606 5.205554 1.045230
-0.101942 6.760617 -3.492284
-0.962520 6.985224 -4.052088
0.892701 1.399877 0.299893
0.165967 6.747613 1.366723
-3.589834 7.170859 -1.093798
-2.200284 -0.020157 1.124441
0.215158 2.994386 -0.319360
-0.623864 4.223219 1.162409
0.779936 1.024786 1.102165
2.283158 -4.309861 1.062061
1.875390 -2.864036 1.213417
0.231873 3.132826 1.028217
1.331345 3.400128 -0.446138
0.012862 8.502218 -0.237656
-0.891626 2.300627 0.603373
-2.204911 1.410362 0.452262
0.512842 3.419251 -0.179428
-0.453673 11.168468 0.927002
-2.220702 -2.201616 0.496524
0.930576 0.436222 0.166253
-0.555634 8.318986 -3.356200
-0.504406 7.058045 -0.397793
-1.195988 7.084291 -0.257306
1.105617 2.376649 -0.029622
0.376061 8.606402 0.995498
-1.101694 7.675157 1.059350
-1.823456 -0.015754 -0.196376
-1.279227 5.479922 1.343197
0.001304 9.280598 -0.104882
1.867787 -0.617252 0.803871
-0.406350 9.089563 0.846145
-1.461281 5.778984 1.185754
1.503996 -0.930758 0.819971
2.039801 -0.480076 1.437020
-0.327977 6.803320 -0.177658
-2.478038 9.185099 0.454735
1.027202 2.058626 0.496076
-1.950518 10.187760 0.615114
-1.111777 6.344006 0.020155
0.288277 12.610508 -0.029806
0.010060 8.421840 0.464252
0.222349 3.239862 -0.041461
1.186898 10.455801 1.049524
2.584338 7.094209 0.094680
1.255064 1.622432 1.313343
1.224724 -0.397567 1.199401
-0.977819 6.458717 -0.322175
-1.393761 3.971295 0.686573
1.303327 -0.755009 0.686790
-2.108972 2.285980 0.165508
-1.723840 0.436242 0.024580
-0.561078 7.114012 1.324305
-0.939576 6.175705 1.556364
-2.060593 7.634881 -3.888807
1.888714 -1.974043 0.845941
-2.361994 -1.442894 0.645073
1.609346 7.907710 1.182956
-0.327601 5.324997 0.203981
0.555013 5.456301 -0.463201
1.106515 1.675132 0.551487
-0.247619 3.570442 0.740776
0.384179 6.709297 -0.073930
1.711542 2.372284 -0.193914
0.772813 8.319741 -0.099812
0.427529 6.880536 1.058729
