1.240444 2.793304 0.921490
-1.501541 8.411311 -3.659635
-0.696720 7.767704 1.232893
1.382290 5.849795 1.177543
0.915484 5.665628 0.019441
-0.656316 3.774785 0.088691
-1.099443 11.045457 0.851494
-0.548745 8.095513 1.438283
1.524225 4.388928 1.014925
-0.879925 5.474262 1.266117
-0.728336 2.738906 0.584784
-0.578351 13.089478 0.630975
1.311488 8.500006 1.496487
-2.393059 10.111288 0.461168
-0.670155 10.144057 0.393340
0.947068 2.942704 -0.412715
0.840151 3.928906 1.535622
-2.308588 1.746971 0.648411
-0.683178 4.684725 1.734093
-0.696515 7.237721 1.761894
-2.141642 1.080692 0.078326
-0.640953 6.475263 0.993860
-0.417410 4.615492 -0.070147
0.539881 11.051533 0.666643
-0.285712 13.326921 0.631392
2.384621 8.902028 0.540333
-0.419450 5.010843 -0.674808
-1.318672 9.745158 1.461216
1.148966 7.377560 1.010900
1.957259 0.667241 1.252117
-2.620921 8.811159 0.457802
-0.091295 9.168903 0.731084
0.739105 9.828423 1.709962
-1.843596 0.809995 0.200665
1.713637 2.471065 1.003443
1.339004 2.162237 0.830734
0.787377 2.661708 -0.037795
1.977751 7.378966 -1.570445
-1.415565 4.732090 0.915031
-1.324320 -0.035914 0.986059
0.878468 2.084839 0.934332
-1.995228 0.345629 -0.216546
-0.131256 5.748077 -0.315920
-0.192356 7.358111 -3.102215
-1.268331 8.339662 -0.190440
-1.915987 1.979890 0.557597
0.766901 1.774684 0.331779
2.547519 8.262625 1.204483
1.404885 2.091077 0.018801
1.700270 1.948300 -0.186737
-1.934970 7.863567 -2.872013
-0.321736 8.967863 1.254972
0.637096 10.839500 1.310601
2.876316 -4.649395 0.593319
-0.703424 2.468292 0.289065
1.119466 -0.730908 1.023196
-0.733523 8.196559 0.376443
-0.527984 11.722014 0.270471
1.045001 3.436514 0.228644
1.038519 3.747805 -0.530683
-1.602218 7.938238 -4.031705
1.385956 0.980776 0.565238
0.145681 10.884624 1.267157
0.569812 4.311970 0.457323
1.551103 9.438009 0.779309
-2.041623 0.700861 1.192542
-1.208122 2.229400 0.373270
-0.490752 9.273436 0.130410
-2.297606 -4.616172 -0.076245
-2.204131 -4.632653 1.585278
-1.778289 -0.043891 0.962370
-0.767755 4.658788 -0.716319
-0.794091 8.980346 -0.259749
1.112765 5.636510 0.975714
1.043792 6.287664 1.579975
0.960010 6.089425 0.073321
-2.440106 -4.612122 -0.580634
-1.671991 9.516594 1.219588
-2.420818 10.185457 0.813189
-1.411689 3.523942 0.713105
-0.047316 7.058954 -0.101537
-0.448623 7.694784 1.746706
-3.120324 6.849806 -2.796332
-0.246899 7.972177 -3.608512
-0.367910 8.106588 -3.280804
-1.441028 9.749139 1.018922
0.690842 6.651405 0.401336
-0.782289 4.015179 1.542403
2.649737 -4.245579 -0.000699
1.371297 8.292720 0.254379
0.299291 8.166305 -0.233346
-0.405698 5.053655 1.810394
-1.207997 1.288732 -0.335852
-2.168846 -3.336617 0.699056
-1.759670 0.864915 0.745482
-0.598025 5.617449 1.029263
-1.382395 0.611812 -0.240069
0.785057 6.478041 1.734951
1.600247 8.217755 0.589973
0.113661 9.038403 1.718777
1.561482 0.026099 0.327050
2.050638 0.220530 0.655529
0.768535 7.140488 0.499727
-1.775108 3.331990 -0.273039
-0.887677 9.268604 0.183728
0.743469 7.481811 0.720312
1.063381 8.349742 -0.007991
0.450738 9.552974 1.713434
0.569367 4.827758 0.928911
1.661537 0.219230 0.626175
2.222138 -4.631334 0.785761
0.461385 8.374952 1.738906
-1.073551 9.421448 1.585962
-1.115301 4.565961 0.152451
1.626284 4.022126 -0.093317
0.893249 0.848002 0.006104
2.009171 9.612306 0.943826
-1.354078 7.682733 -4.172514
0.308956 8.856724 1.357784
-0.199690 4.328975 0.654786
-0.069564 10.751689 0.927449
-0.225890 12.680731 -0.176858
-1.221117 2.988329 -0.642972
-0.867156 7.373026 -2.493449
-1.801277 9.596302 0.796232
0.763497 8.865033 1.119926
2.551463 -4.603139 -0.249583
-0.455318 13.582010 -0.149577
-1.197668 2.501879 -0.524768
-1.399836 7.985514 0.474725
-0.145369 9.985399 -0.005641
1.123192 6.031476 0.429991
1.248865 4.727058 -0.307236
-0.902612 7.298066 -0.329828
0.267048 4.573706 1.400433
-0.370388 13.696375 0.539134
-2.581324 8.907685 1.073056
-0.137752 7.731359 0.652436
-1.147853 0.245940 0.751605
0.220249 9.473494 0.214807
-2.031738 -0.423992 0.612720
-1.434011 4.190393 -0.496886
3.276852 -4.581128 -0.350275
-1.426480 5.111399 0.867848
2.530351 -4.605020 1.662566
-2.272423 -2.546288 0.607462
-0.668389 12.982153 1.136160
2.796125 -4.642096 0.947530
-0.793141 5.072247 1.723861
-0.253245 12.223214 -0.618404
0.526373 2.178567 1.250959
-0.692521 7.994569 0.745108
-2.078960 7.304788 -3.860893
0.838055 9.003641 1.759904
-0.601257 5.994745 0.351635
-0.956685 5.440714 1.638089
1.563491 8.294194 1.282776
-1.431894 5.227453 0.061182
1.043368 7.443272 1.410882
1.818681 -1.031442 0.723691
-0.656517 7.004777 -2.637951
-1.663240 6.727320 -3.309579
-2.123049 9.634763 1.088325
0.097948 2.570678 0.237772
0.533427 5.223767 0.970699
1.474424 3.401236 0.135178
1.760496 4.351122 0.705881
-1.094527 4.748179 1.589479
-0.064264 5.191256 1.401291
-1.834391 9.556655 0.048110
-1.318567 9.170918 0.259036
-0.124729 7.728594 -0.383990
0.428722 4.503497 1.006044
2.254952 -4.636319 1.048644
-0.559380 7.941259 -4.226385
0.057410 8.929954 0.989338
-0.400672 7.244480 -0.040274
0.425055 6.776103 1.710985
1.215443 10.046095 0.818405
-0.641032 2.751195 0.975598
-2.162338 -4.277416 0.655172
-1.102028 7.664945 0.109187
2.526347 -4.248872 1.427516
0.251725 5.851847 -0.263692
-1.519259 -0.059731 0.026165
-2.256195 7.176676 -3.168737
-2.302312 -4.260519 0.032845
0.589805 12.283544 -0.135164
1.167444 6.950456 0.988449
-0.272272 4.150213 1.047683
1.538935 1.694481 0.121961
0.303066 5.118166 0.301522
-0.374376 3.502521 1.188508
-1.462134 0.550895 0.330067
2.118763 1.510730 0.794799
2.057892 9.137782 1.466411
-1.590581 7.891749 0.847159
-0.759165 10.274084 1.500089
2.927369 -4.285990 0.195215
0.280886 10.030142 0.086333
-1.479978 0.985418 -0.398827
-0.143811 5.145492 0.718815
3.285013 -4.531532 -0.251247
-1.185374 6.669616 -3.430657
-0.288137 10.307881 0.557739
-0.751544 7.618125 1.731507
-0.445960 7.940171 -3.825755
1.923304 1.799500 1.005527
-1.205996 9.040703 0.868622
-1.673971 7.569408 -3.043192
-2.068138 7.872429 -3.226208
0.624941 2.575614 1.333349
-1.129142 8.481576 0.162260
0.457195 4.196211 1.321042
-0.396918 11.804579 -0.130040
0.965750 0.992524 0.454020
1.360034 -1.085648 1.341460
0.250921 12.762647 -0.567214
-0.824419 8.130689 -3.680435
-0.508379 10.792136 0.872057
-0.102142 12.874356 0.577283
-2.211078 7.823123 -3.543408
0.682667 7.904428 -0.153881
0.960312 4.663445 0.429339
0.855828 1.927646 1.353343
-0.941835 0.902320 0.235840
2.179854 0.664736 0.935276
2.541880 7.382783 1.107068
-2.003460 3.165943 0.057844
1.175456 2.786077 -0.082166
-1.421217 10.164296 0.597217
1.628772 -1.823360 0.988486
0.396578 7.720836 1.047009
-0.801840 10.969342 1.151736
-0.351223 3.189009 0.938491
-1.271569 -0.436764 0.574055
1.441565 6.680952 0.781983
0.331001 7.362588 -3.849319
1.715467 9.641867 1.146369
0.495532 13.488090 -0.212101
1.380635 5.244050 1.248783
-1.286550 10.533422 0.847876
-3.076726 8.301193 0.497351
-1.822869 4.986802 0.622645
-0.971099 7.026829 1.198178
1.498570 7.285898 -2.334611
-0.037999 2.982656 0.091107
-0.173714 4.729002 0.652635
1.223636 8.431046 0.639046
-0.421165 7.058406 -3.542607
-1.862105 -2.002157 0.758861
-0.453496 12.948744 0.321137
-1.178608 1.406564 0.981310
-1.321952 7.010063 -3.211044
-0.824393 5.018178 1.352823
1.194139 0.403343 1.320577
2.057685 10.108516 0.609904
2.643143 -3.976539 0.801438
1.478352 3.701600 0.418576
-0.869107 5.886595 -0.020216
1.318890 1.387840 0.522220
1.419975 -0.481320 0.822075
-0.250689 5.828989 1.099729
1.586178 5.953024 0.820140
2.010431 8.916474 0.644271
-1.564072 -0.143623 1.402294
0.663603 2.133444 0.536538
0.465428 4.817474 -0.640247
-0.618194 6.719301 0.596537
-1.819461 0.445721 1.380935
1.753876 -1.494394 0.805922
0.694416 7.406420 1.317655
-0.729063 7.913313 0.071967
3.149649 -4.587116 0.535623
-1.070056 9.957313 0.431098
-1.756983 2.150456 0.188508
-0.112228 10.587830 1.369966
0.638704 1.947712 -0.122454
-1.433692 5.563906 0.694231
-0.250493 7.102321 0.325924
0.470683 1.469014 0.347843
0.749510 10.610210 1.023177
-1.379628 1.720036 0.799814
0.986760 2.077513 -0.288884
-0.748235 6.583081 -0.065983
2.978101 -4.425623 -0.179655
0.083340 3.983880 1.470978
-0.323208 7.000386 0.708316
0.204530 12.229366 -0.022716
0.640157 1.545645 0.012378
-0.364906 6.380885 -0.258059
-1.610938 1.244964 0.003184
0.764686 13.097343 0.469329
0.389565 5.025456 1.375871
1.263031 0.971828 -0.189320
0.824185 10.405591 0.400606
-0.051482 13.717418 0.775011
-1.744640 2.336688 1.020846
-1.469003 1.868437 0.293856
0.893830 9.415793 0.433484
-1.180325 6.271747 0.978430
-0.825766 7.334780 -3.293819
-3.405507 7.094245 -1.547750
0.362787 5.488748 1.313390
-1.137313 0.605760 0.092787
-0.605691 7.283505 -4.224110
-0.443429 6.809561 0.203313
1.028047 4.223793 -0.452380
-0.210526 7.819956 1.228108
1.297625 8.715532 0.175458
1.052153 6.350152 -0.160476
0.982741 4.522919 1.588821
-1.319177 4.333940 0.661750
0.828511 3.164893 0.501752
0.116229 5.802806 0.478175
0.133770 4.233769 -0.315310
0.377700 6.329083 0.806247
0.547266 3.066633 1.343579
-1.265802 3.363975 1.365698
-1.275250 3.523683 -0.207375
1.226306 7.847519 1.050634
0.001408 3.690796 0.390135
-1.435539 8.197668 -2.945400
0.175986 7.744807 1.780285
0.515161 5.611373 -0.094405
0.616613 7.811082 1.365743
0.431352 13.632950 0.202211
0.223764 6.951812 -3.299498
1.774839 -0.085573 1.556703
-0.567012 6.170814 1.801897
-1.238966 5.552686 0.993563
-1.588894 1.372522 -0.414535
-1.194551 9.584041 0.278584
1.672389 8.684144 1.333320
-3.384301 8.098987 0.256309
-0.752456 11.122581 0.708268
0.627124 4.638474 1.348406
-2.130325 0.696588 0.751738
-0.458655 5.706358 -0.006180
-1.285944 5.907027 0.766681
2.275116 -1.478705 1.173247
-0.647315 1.973508 0.632963
-0.220425 6.904216 1.164510
-0.722189 5.265947 0.067337
-0.512080 8.223596 -3.610048
-0.685821 7.509043 0.283762
-1.297458 2.675738 1.209224
-1.960758 7.202324 -2.873657
-0.678945 9.638699 0.929705
0.151222 10.411767 1.084784
-1.809703 4.618292 0.810557
-0.165828 7.152295 -0.511260
0.135012 10.496299 0.605383
-0.691484 6.923550 -3.259125
-1.471559 3.375919 -0.557222
-1.727625 1.958689 1.065813
-2.366714 -0.694697 0.864782
-1.090557 1.022238 1.055647
0.229471 9.369696 0.955750
-0.278164 10.984859 0.154723
0.788727 7.731606 0.175895
0.261582 13.278261 0.019338
-2.137228 2.984194 0.358256
-0.308177 8.364853 -3.935992
-1.507030 7.823142 0.078916
-1.362116 4.973767 -0.415175
-0.326386 12.512986 0.494097
1.271714 3.452512 0.973372
-1.971249 2.506262 -0.154287
-0.974113 3.934210 0.367583
1.285259 5.698543 0.648629
-1.067098 9.966960 0.826991
-1.162747 8.369433 1.150591
0.266821 3.392647 -0.500194
-0.466327 13.670665 0.391417
-1.077799 5.790855 1.498717
0.942565 1.647409 -0.205173
-0.009316 9.179621 1.321715
-1.110684 4.727565 1.168399
-1.731123 7.594176 0.607260
1.196364 8.285958 1.067892
-1.319582 6.085520 1.377329
-0.908564 4.708618 -0.296631
0.607410 8.214223 1.403344
0.347820 13.247318 0.418536
-0.383366 5.036639 -0.079156
-1.116935 9.902852 1.179290
-1.272102 6.558522 0.348329
0.985619 9.794703 0.222874
1.666074 3.154092 -0.195606
-1.355044 8.299908 0.806855
0.494242 10.700877 0.489425
0.619498 1.116524 0.217510
-1.559693 1.257389 1.292674
2.344934 8.495797 1.476907
0.111220 9.669789 -0.055013
1.133909 7.209586 0.670967
-0.096418 7.589702 1.570377
2.129555 -0.418611 0.649138
2.221817 -1.714973 0.835146
1.544827 2.941961 0.104840
-2.611711 9.827009 0.589120
-1.367267 10.117828 0.212319
-0.972029 7.351168 1.489989
-0.864382 3.865308 1.108703
-2.201334 0.377602 0.179983
0.098879 12.541087 0.714926
0.109828 9.801690 0.389218
-2.470233 7.472045 -3.372275
-1.575619 0.202949 0.668134
-0.093054 6.734397 -0.585647
-0.499346 2.409690 -0.245256
-2.042229 0.307372 0.905671
0.404218 7.584425 0.024764
-0.656462 10.149446 0.816426
-1.819999 0.981181 1.098241
-3.286340 8.110235 -0.144654
1.068532 7.029146 1.394134
-0.391267 11.907947 0.773949
0.629189 5.284639 1.736867
-0.446997 2.852599 0.280548
0.335005 7.193197 -3.138878
-0.317200 2.485997 0.081259
2.062172 1.450978 0.444177
0.413588 1.868659 0.191484
2.410991 9.032905 1.357598
0.003635 4.932204 -0.693262
1.720038 2.114301 1.129193
-0.709364 7.429344 -2.849690
-3.614655 7.709457 -0.866063
-1.544114 7.661453 0.306620
-0.518096 12.114297 -0.362734
-0.908548 10.689835 0.882277
-1.422692 -0.419769 1.031186
2.363014 7.396035 -0.170464
1.563086 0.524422 1.244460
-0.458218 7.418076 0.598444
1.210165 7.199120 0.035252
0.239833 5.351576 1.685880
0.762309 8.149843 0.201295
-0.032104 4.791450 1.417401
-2.067701 0.724309 -0.048752
-1.128420 2.307117 1.239075
-2.246187 -1.004374 0.479733
-1.060597 3.633963 0.834728
-0.249222 8.110586 0.769035
-0.377279 8.573962 1.047511
-1.670898 10.655789 1.074004
-0.358588 7.563629 -3.422837
0.418872 8.999041 0.988309
1.996929 -3.884374 0.905994
0.697577 3.847598 1.173708
0.650463 6.348037 0.042122
-1.948889 3.575840 0.013851
-3.584876 7.347496 -0.810560
-1.830845 1.239206 0.271988
1.031401 8.772782 0.802838
0.873788 5.612972 1.668098
1.110940 0.032512 1.143090
-1.081366 3.116276 -0.152425
-1.437363 6.843721 1.152650
-1.866802 10.528276 0.428868
-2.004568 6.971848 -3.740783
0.102496 9.614514 1.294611
-0.527007 12.893298 -0.393759
-1.534297 0.865649 0.014859
-1.009884 6.649268 1.065307
0.058999 5.752259 1.742254
0.881424 7.265366 1.722154
2.324965 7.235314 0.276477
1.315042 -0.108050 0.630516
0.084147 11.720822 -0.649272
0.061254 3.628404 -0.224423
-0.139987 6.169599 0.347236
0.368567 7.248410 0.640253
1.272948 5.289826 0.819246
-1.982868 8.667900 0.695525
-0.275197 13.230178 -0.427214
-1.430326 5.592369 0.269976
0.939289 3.011112 0.149716
1.479440 2.765086 1.213621
-0.380690 7.687196 -0.025574
0.706274 13.307789 0.129152
-0.184806 8.404170 1.636189
-1.586579 3.416315 1.108852
1.405299 9.832249 0.375668
2.003976 -0.767612 0.454982
-0.773151 7.010343 -0.009676
-0.461603 11.470011 0.603590
-2.002216 9.503878 0.503265
-2.781378 9.049612 0.708342
0.605935 7.417776 -0.330502
1.001025 7.858663 1.425242
-0.236787 7.489975 0.274765
-0.702584 4.841715 1.008634
1.108009 5.269463 0.138846
-1.103860 2.648609 0.442297
-0.845839 12.757692 0.305811
-1.045811 4.217765 -0.623152
1.267078 3.113098 0.354870
0.392751 1.814379 0.581699
0.845315 7.654627 1.034986
-3.323850 7.012448 -1.815473
2.468065 -3.969863 0.375214
-1.748180 7.222736 0.738638
2.879672 7.466332 1.051505
-0.835597 1.278802 0.783053
-2.502985 -4.581796 1.439830
1.519745 6.319569 1.000933
-1.682549 -0.669498 0.684555
-0.471922 12.709514 0.750794
0.852548 2.859019 1.179322
-3.370676 7.342016 -0.284435
-1.579281 8.925461 0.686368
0.832686 9.883371 0.583857
-2.117492 10.297359 0.294875
0.088125 9.450132 1.653488
-0.763918 8.461521 1.148386
-2.575236 -3.939118 0.644364
-1.535773 6.470431 0.925770
1.565386 5.517385 0.985560
0.143813 10.932023 0.629142
-0.847686 3.531665 -0.262728
0.529818 2.524339 0.550890
-1.921776 -1.436369 1.373709
-0.132330 13.642047 -0.363571
2.128200 10.362897 0.888869
-1.053466 5.836293 0.366157
1.029745 0.730576 1.192840
0.215198 4.874594 0.660663
-1.434921 7.943587 1.163739
-3.274272 7.254094 -1.310753
1.557178 0.903339 0.222092
-0.064071 8.852080 0.438465
-2.340538 -2.945103 0.862489
0.279309 2.463225 1.087038
-0.988601 9.175456 1.242359
0.112389 3.980097 0.015455
-0.618651 5.359506 -0.589282
-1.847787 9.878883 1.202691
-0.121664 8.232069 1.243587
-0.737105 4.345854 -0.298690
0.344217 12.964538 0.583150
2.895714 7.355236 0.642623
-2.177574 -0.003395 -0.037294
0.824760 8.097891 1.742763
0.740740 2.787631 0.293178
0.543864 5.519730 0.573829
-0.646356 3.164246 1.180583
-0.352887 8.484253 -3.737294
-0.675881 5.881962 1.382886
0.712425 6.568726 0.783640
-0.152263 7.907692 0.273691
-1.954478 4.665365 0.405178
2.312410 7.989398 1.096869
1.922415 8.852416 1.051046
1.266434 3.775110 1.386388
0.044734 12.076980 -0.356149
-1.769673 9.970832 0.905561
-0.127088 5.593610 0.773399
1.156395 1.592789 0.140447
-0.360758 2.891961 0.696924
-1.153346 0.600467 0.962294
1.504401 7.085030 0.805249
-1.286434 7.221025 -3.783887
-0.570836 7.109644 -2.999695
1.311622 7.907829 -3.224296
1.861810 1.369484 1.021052
-0.450257 3.550328 0.332676
-0.526771 9.207149 -0.212655
0.542767 7.125510 1.682110
-0.099593 12.180505 0.685291
0.227194 12.514369 0.304697
0.732564 5.727404 1.342703
-2.141570 -1.081601 1.414882
-0.292563 6.639048 0.894527
0.021955 8.255849 0.116768
-1.582073 7.217915 -3.082337
-0.601178 8.808537 1.699368
0.222121 5.967516 0.093504
-0.788456 9.213298 0.861315
-1.096934 8.084973 0.116577
-1.722246 0.545258 0.954526
-1.828452 4.663604 0.012808
0.252767 8.706040 0.628692
0.752108 12.971297 0.036825
-1.167043 6.838020 -3.820101
-0.716270 5.523510 -0.217531
-1.951171 1.329809 1.155007
-1.726363 2.861406 0.228571
-3.033238 8.730893 0.424716
1.180755 4.881630 1.455536
0.517699 10.386593 0.775682
1.881476 10.520787 1.110561
-3.605384 7.871133 0.002436
-1.018854 4.915585 0.773418
1.142702 10.139884 0.407667
-2.061817 -1.276325 0.347227
1.409898 6.766849 0.459317
1.214334 10.842810 0.950349
0.802587 8.250715 0.599507
1.261983 3.404334 1.351772
1.554134 3.177664 1.163177
0.018435 8.411664 0.901999
-0.263917 7.580896 -4.284413
-2.248887 1.816204 0.236330
-2.721048 -4.572397 -0.869791
-0.799176 9.121133 1.610455
-2.248916 -2.516935 1.050258
0.994720 10.132295 1.616596
-2.060628 3.882072 0.338385
-0.260857 13.077223 1.243190
0.974709 0.364358 0.905156
-1.990418 -3.939332 0.869035
1.533615 4.740289 -0.028964
-3.604880 7.445419 -1.292776
-2.120907 1.454835 -0.004826
-1.512718 3.177376 0.616119
0.559440 4.588891 1.752110
-0.891354 3.431524 1.273632
-2.285398 -0.014010 0.824167
-0.486801 8.521216 1.430310
2.249925 8.701713 0.989598
1.062887 5.105038 -0.318343
-1.315777 6.715935 0.747909
0.047793 13.827356 0.379781
1.143663 4.243341 0.981399
0.189765 5.666686 -0.638737
-1.641693 2.606411 0.769202
1.177797 4.969608 1.046199
1.572518 10.267645 0.956089
-0.706382 5.592441 0.306749
1.030752 8.795927 1.527036
-1.548780 8.608616 0.096194
-0.908041 8.356204 0.795417
-0.411971 2.204002 0.419414
-1.157598 5.591201 -0.085996
0.422509 2.950554 0.554594
-0.535279 6.416064 0.271312
1.661891 8.993501 0.746321
0.174913 3.598964 1.480975
0.667551 10.045316 0.921139
-0.038984 7.340424 0.646035
0.064079 7.961518 0.920982
-2.007665 -0.703212 1.496734
-1.155868 0.248166 0.314048
0.229871 11.524020 0.072290
-1.025175 3.530486 0.455123
1.699377 7.357237 -1.962380
-0.984947 7.837805 -2.877945
0.310707 9.986345 1.175864
-1.425192 5.350025 -0.315677
1.555223 9.832529 0.788126
0.524244 5.988268 1.049164
0.689690 5.336814 1.378866
-1.039538 10.307019 1.096810
1.356843 -0.829024 0.269934
-2.194320 -4.618178 0.794712
-0.249329 13.053833 0.945274
-0.940623 6.833221 -0.324341
0.244278 5.234497 -0.653143
0.637599 1.113588 0.679151
0.392502 8.556356 -0.177749
-1.440379 2.140071 -0.478662
1.349002 4.920881 0.676031
0.295364 6.592953 0.466474
0.340020 9.110130 0.610427
0.636787 5.977604 -0.137199
2.051477 1.889011 0.604756
-2.101490 6.765185 -3.421884
1.774647 1.065152 1.265413
1.657583 7.730754 -1.996731
0.109440 4.224749 1.124847
0.576885 9.243536 0.295275
0.926970 -0.753495 0.583244
0.663316 13.444399 0.471303
2.020392 -4.163189 1.240264
-0.774713 2.433835 1.095447
0.648434 7.042700 1.343837
2.354258 7.202807 -0.687429
-0.504033 2.384562 0.749445
-1.072209 2.647796 0.820895
1.023280 4.854835 0.009942
-0.916520 8.252326 1.535987
1.177612 9.645935 0.610599
-0.198310 8.017530 1.630582
-0.067104 6.980849 -2.918641
0.482043 12.767053 1.042042
0.142441 8.649454 0.160463
1.124054 3.824100 0.632052
1.354884 5.699639 0.205328
-1.851288 0.437625 0.438180
-1.023691 7.361141 0.489633
0.611715 4.434607 -0.532390
-0.432179 10.160449 1.157796
-1.842981 2.416033 0.508357
0.919374 2.293376 1.340982
1.250951 0.187325 0.081186
2.404940 7.544543 -0.457056
-2.274010 -0.014155 0.335134
-2.207164 2.551541 0.387450
1.247951 1.473154 0.906101
-1.182644 4.078956 1.484328
0.729810 3.641469 0.099517
-0.453945 3.904827 -0.700292
0.197033 13.704381 -0.130387
-0.678190 3.128044 -0.199734
1.604778 -1.003614 1.544266
-3.647872 7.576861 -0.410098
-2.124801 -1.839215 1.257252
-1.513665 6.210728 -0.133080
0.094731 3.837299 -0.539768
1.602740 8.620591 0.493591
-1.370788 4.779962 0.534465
2.099275 -1.304443 0.772819
1.104836 6.638695 1.425423
-1.647882 4.019887 0.308032
-1.514820 9.103625 1.219608
1.818517 9.792856 0.518377
-0.497393 8.140602 1.063288
0.367096 9.274645 1.341653
-1.348826 8.308989 -3.940902
0.558025 3.477868 1.513824
-1.104083 9.805362 -0.004766
2.212315 -2.176188 0.867515
0.492239 2.537151 0.194558
-1.319105 7.494817 -2.813788
-0.039087 4.805417 -0.025982
-1.131959 10.220155 1.475480
0.154295 7.659492 0.326673
0.730910 12.754627 0.494782
0.735405 7.283627 0.125498
1.755255 4.014073 0.969014
-1.388093 8.022687 -3.713879
1.311338 2.275739 0.412455
-0.804811 13.218641 0.913191
-1.395821 10.146287 0.993831
-1.145830 7.159166 -2.923757
-1.504714 2.356093 1.178139
-1.079255 3.114288 0.493545
-0.155558 11.504079 0.811697
1.244513 6.242890 1.255971
-0.098236 13.379920 -0.057069
1.244177 9.468623 0.206363
0.871036 1.575564 1.177057
0.987035 5.090270 0.447015
-1.452019 1.998635 1.226955
-0.666607 3.489638 0.891733
0.955528 4.630594 1.131297
0.774372 1.713970 0.770651
-1.921864 3.178974 0.571027
0.906345 5.353214 0.712855
1.056469 10.765190 1.299376
-3.293930 7.263013 -0.690752
-2.288636 2.146674 0.460031
-0.902738 4.511566 0.885700
-0.973806 7.833668 0.444096
1.313012 6.801981 0.097341
-1.547992 4.603337 -0.342733
0.846162 9.459261 0.045830
1.380186 7.598030 1.342688
1.627116 0.638498 0.539040
-0.585631 5.452824 1.813291
-1.971748 -0.785916 0.284585
0.117716 4.601840 0.341355
0.997050 8.542478 0.346852
0.493375 8.839468 0.313912
0.209497 7.103567 1.410663
-0.158661 6.038495 -0.029610
-0.236359 9.610493 0.223204
1.548522 7.484387 0.985475
0.510458 2.787201 0.960696
0.406340 5.192777 -0.096221
-0.228273 8.948660 0.096687
-1.422826 2.762476 -0.151629
1.113911 6.502012 0.985515
-0.954010 5.677506 0.707305
-1.136354 6.040047 -0.262530
0.147461 7.314069 1.777896
0.437079 9.175167 1.754089
1.323543 8.040699 1.428180
0.907979 9.765255 0.943318
-0.021555 12.469796 -0.418352
1.637488 0.282659 -0.095150
-0.867646 8.582901 -0.256073
0.541679 9.690531 0.373711
-1.390951 7.935843 -3.364151
-1.679636 9.846421 0.506675
-0.290264 9.956449 0.804192
-0.500659 7.929418 -0.301613
1.197178 9.096417 0.134790
-0.066376 12.733658 0.171753
-0.246842 4.924670 1.045950
-0.101175 7.268153 1.339737
-0.260720 4.608778 -0.709427
-1.994453 -4.629927 1.274569
-1.523105 9.784480 0.117353
0.079386 13.298999 1.185185
-0.685392 2.721508 -0.050858
-1.161376 4.354577 -0.195261
-1.058610 10.791612 0.517515
-0.973046 6.998491 -3.536819
-1.674311 3.766548 -0.356838
-1.934951 9.151691 0.570735
1.536568 9.941169 1.205019
-0.687924 7.109212 0.363958
-1.504862 2.541819 0.306815
0.590091 3.278178 0.206927
0.151612 2.795191 0.864071
0.798685 6.201762 0.843118
-0.871849 4.121579 0.027405
-0.908483 9.010033 0.500962
-0.680382 13.225571 -0.130333
-1.402501 0.979945 0.373424
-1.072666 5.156788 -0.166655
1.701124 4.598686 0.332996
-1.647185 0.304511 -0.316817
-1.051454 7.772627 -2.543205
1.443109 6.317229 0.580429
-0.455546 4.874444 1.428964
0.462285 1.461365 0.726256
0.025659 3.442922 1.106777
-0.880099 7.741982 -0.282462
0.519914 10.337919 1.223546
-0.096258 6.889195 -3.833447
0.297668 5.540408 0.217707
0.835964 10.991329 0.981690
1.263013 2.520657 -0.417700
2.046825 -0.173179 0.382125
-1.005325 0.968446 0.629912
-1.550362 2.943357 -0.489955
1.728047 -0.810534 0.151062
-2.944280 8.783781 0.065012
-0.637265 12.483183 -0.167161
-0.936636 8.047548 1.131456
0.493161 7.926001 1.702619
-0.980336 2.779798 -0.463746
-0.540097 1.820554 0.363283
-3.532477 7.902000 -0.403216
-2.216937 0.301180 0.535465
0.227359 7.005104 -3.662109
0.337202 12.165678 0.683440
0.821986 9.400016 1.733347
2.284632 7.478042 -0.876303
-0.428634 7.692417 0.914078
0.490466 5.691971 1.680879
-0.717148 13.542637 0.141785
0.146703 7.250260 0.263734
-1.047314 3.051985 1.293410
0.235067 2.637440 -0.133707
1.867157 1.414137 0.088163
-0.326964 5.422753 -0.249131
-1.260657 7.936569 -0.203890
-1.775281 -1.732391 1.148467
-1.237956 7.306611 -4.159530
2.299001 9.284175 0.532845
-0.128182 5.913529 -0.653695
-0.592265 7.607641 -3.175106
0.723609 3.946234 0.445647
1.329936 5.312580 0.467265
2.211816 9.796986 1.297306
3.077651 -4.778185 1.753710
1.843927 -2.116899 1.243884
0.091879 6.927890 1.788023
0.524400 8.787482 1.720010
1.580107 2.718815 -0.319739
2.211183 -3.049932 1.114704
-1.754946 1.657715 0.106421
-2.057750 7.455345 -3.608448
-1.313865 7.282379 1.359373
-1.505207 0.304028 1.293302
0.072779 12.325480 1.099605
-0.615521 7.224737 -3.803874
2.214086 9.685471 0.573405
-1.164563 7.283202 0.958758
0.082738 12.101558 0.351809
-1.373756 0.276736 -0.029503
-0.688914 7.600360 -3.618608
2.778893 7.343106 0.022542
1.304787 1.790526 -0.254855
-2.784010 8.387709 0.298786
-1.334701 8.821490 0.412368
0.191972 2.449557 0.683696
0.591188 6.113637 1.408377
-1.035054 3.729309 1.463136
0.238941 8.394025 1.385114
-1.044456 1.855936 0.555905
2.038339 0.645327 0.544046
0.882015 6.861090 1.715407
2.561388 8.666731 1.263869
-1.341633 9.390974 1.353707
0.899300 10.717264 0.667503
-1.369718 7.144523 0.692806
-0.723773 8.773861 0.820938
-1.687109 3.274651 0.242113
-1.155724 6.990169 0.374117
2.722849 -4.026945 0.513016
0.560752 6.940668 -0.414869
2.241949 -1.130643 1.049035
-2.676162 -4.289690 0.606703
-0.229432 8.729561 0.736867
-0.872262 3.060089 0.832347
-2.176368 -3.580782 0.978873
-1.786260 8.929525 0.970612
-0.894556 2.712433 1.306299
2.025547 -3.204880 1.349437
0.303328 3.624194 0.072654
0.892872 2.502882 -0.383378
1.553918 1.390503 1.278785
0.624388 9.457733 0.696664
-0.285737 4.523234 0.277907
-1.712419 4.962212 1.030624
-1.420585 0.953563 1.052484
2.849749 -4.638678 -0.086335
-0.226119 3.238709 0.455285
0.376470 3.865311 -0.272321
0.381837 7.997718 -3.709985
-1.932416 -0.298606 1.490471
0.402386 8.373507 0.338879
-1.114571 5.010430 0.230714
0.614994 12.488460 0.643931
-2.890138 9.128238 0.331847
0.899356 1.349183 0.719613
1.335524 0.672162 0.901398
0.808043 10.520494 1.518695
2.088888 -0.123769 0.923610
-1.422652 7.475092 -2.481422
-0.516269 4.130367 0.348621
2.021444 2.280449 0.518813
-1.791035 10.284106 1.192412
0.310716 6.180218 0.411716
0.885387 5.518637 -0.354399
0.906312 4.905767 0.773400
-0.866257 12.870874 0.814503
0.833415 6.787872 1.089088
-0.389924 9.163923 1.632061
-1.060526 6.788515 -2.757526
-0.990692 4.348280 0.484420
1.446796 -1.463275 1.257003
0.092447 6.618516 0.959104
1.398662 3.796315 0.070673
-1.332451 9.708786 0.639310
-1.626703 6.801977 -3.676034
-0.440836 12.590265 0.154230
-1.750838 0.671366 -0.358688
-0.677413 8.894357 1.236755
0.150267 3.608527 0.764249
0.372988 8.172343 1.065019
-1.163414 8.178566 -3.513971
0.115267 7.392091 -0.421643
0.435889 3.622882 0.392390
-0.755632 7.459337 -0.065055
1.842071 9.933039 1.465472
0.528830 7.491936 0.380064
-0.224215 12.260476 -0.143821
-1.383392 2.871183 0.787229
-1.585648 6.873185 -2.780423
0.474560 7.227615 -3.537442
0.893752 4.736729 -0.508378
1.839745 -0.763050 1.187206
-1.045593 3.704766 0.082119
-1.054390 5.427870 -0.491375
-1.906236 7.115772 -3.370614
-0.278958 3.919773 0.596928
-0.320669 13.776189 0.047125
0.776859 9.052806 0.689263
-1.939296 -0.359525 0.155452
0.941385 5.956730 1.127546
-0.887201 6.615646 -3.368797
0.864019 -0.320529 0.501683
1.586595 9.046624 0.383648
-1.341849 3.752214 0.275887
0.063547 12.855527 0.924031
-0.216844 7.120716 -3.347564
-0.846668 13.164908 0.220814
0.516638 12.204354 0.297444
-1.241909 -0.136717 0.820670
0.794665 5.238750 -0.106869
-2.381848 -3.882279 1.148220
0.838155 4.032640 0.812322
1.039464 5.239708 1.536268
1.411085 10.046023 1.571247
-1.318484 2.319731 -0.129891
-1.929514 1.479869 -0.175169
2.083325 -1.670589 1.476713
0.752724 0.370914 0.513780
0.477396 12.031495 -0.387625
2.470603 -3.697778 0.572569
1.563402 -0.140199 -0.024296
-0.133914 8.125893 -0.302534
1.748501 -0.162006 0.736510
-1.060075 2.045987 -0.455347
0.129907 6.299486 1.343344
-1.451681 5.761472 -0.245973
-0.788885 9.517013 -0.119703
-0.673740 1.592317 -0.042013
-0.887890 8.508640 -3.800190
0.884839 1.232440 -0.109581
1.655934 5.021978 0.285295
-1.140260 1.947691 -0.028852
0.141369 4.614919 1.812831
1.928987 7.575415 -1.802654
2.105008 7.526781 -1.247317
2.241861 7.238030 -0.769994
0.357830 4.157699 -0.629438
1.242912 5.503397 -0.136639
-0.632433 10.882519 0.418916
1.250091 3.188720 -0.104522
-0.545843 6.607599 -0.460736
-0.403421 7.573026 -3.949977
-0.495747 2.105150 0.028756
-1.283304 6.195131 0.499003
1.841438 0.676064 0.103893
1.212893 1.995342 1.371106
-0.624093 8.413859 1.741137
-1.168668 5.123748 1.525007
-1.303008 2.467667 0.812231
-1.491447 7.396851 0.010679
-1.696554 5.022808 -0.135751
0.727653 2.203550 0.151458
-1.649356 8.585209 0.892206
1.197144 3.052442 1.217689
2.565770 -4.615769 0.532237
-0.340214 9.590492 -0.114237
0.476275 9.641288 1.154468
1.878300 0.266144 1.432701
2.147017 8.768423 1.381908
-1.595697 6.569320 0.160832
-0.089017 11.681168 0.378632
-0.407939 6.692384 -3.619791
-3.238585 8.452310 0.179102
-0.904966 1.700216 0.847941
-0.002979 6.648126 -0.253348
-0.884232 4.756240 0.405267
0.166465 13.431513 -0.419307
-1.621749 -0.262109 0.555857
-0.094985 6.768700 -3.149983
-0.878518 9.586412 1.272981
-0.826912 2.046588 0.267553
-1.114261 0.933014 -0.184995
-1.147115 7.389350 -3.540879
-1.445292 0.595914 0.535865
2.726405 8.049145 1.053409
1.624309 -0.741491 0.495778
0.748707 6.025260 1.721924
-0.047972 11.573722 -0.218592
-0.462336 5.952290 -0.307171
-1.813003 7.975870 0.498703
-0.765422 4.860352 0.024631
-1.521218 6.112300 1.079483
1.410327 7.161921 1.239964
-2.271904 1.383890 0.879260
-0.463594 6.907095 -3.995786
-0.404624 13.330931 0.241301
0.046552 7.424976 -2.867865
1.132088 -0.587051 0.285016
1.202909 5.566088 1.371391
0.873829 3.272850 -0.132919
-1.504359 8.460049 0.475225
-2.969243 8.377016 -0.063406
0.195036 3.285089 0.353114
-1.545415 9.298764 0.885960
1.305682 9.119857 0.853303
0.717774 6.581927 -0.344004
1.232793 10.438051 1.490652
-1.232090 -0.112948 0.328005
-2.353210 -4.612770 0.462686
-1.057437 6.549186 1.465176
1.506157 2.487127 0.061523
-0.475475 4.754713 -0.380469
1.543681 0.684759 -0.171437
0.428647 11.076909 1.035465
1.615978 1.549830 -0.187671
1.461647 -1.282564 0.891290
2.395506 -4.343096 0.178808
1.883836 0.004367 0.123679
0.681604 4.568164 0.090064
-0.016507 7.844640 -4.152793
-0.390318 8.130701 0.037973
0.178887 8.164502 1.754803
-0.530152 3.863235 0.960401
-0.918598 2.323202 -0.022826
1.715223 0.839633 0.945490
0.513915 7.509665 1.691218
1.745714 4.822778 0.622286
1.389737 2.306454 1.222279
0.000936 7.450757 -0.071934
-1.528749 7.431314 -3.390166
-2.768705 -4.253825 0.386720
1.745135 2.888072 0.948556
-2.084022 -4.259465 1.529280
0.094818 7.473218 -4.122008
-1.262622 -0.660849 0.904010
-0.809162 3.352695 0.154987
-1.561797 -0.408558 0.244962
0.672550 6.676754 1.423051
-1.878412 5.064118 0.240990
-1.387169 7.862496 -2.980257
0.929693 2.426968 0.218750
-1.317066 4.408346 1.003436
-0.150744 5.082700 -0.366360
-0.577316 12.115560 0.046170
1.605804 3.293359 0.506633
-1.244056 7.533010 -0.230279
-0.793381 1.226928 0.327641
-1.065719 5.411332 0.265265
-0.952974 6.913228 0.717331
2.743517 7.679585 0.678794
-0.168315 5.399249 -0.646566
0.124634 9.500858 0.595000
-1.237591 7.092069 -2.537152
-0.200823 12.868479 -0.582455
-1.375650 1.565908 -0.065558
-1.081221 2.682798 -0.052611
-0.472030 5.723817 -0.584762
-2.678347 7.067651 -3.383682
2.194468 -2.796308 1.473562
-1.661621 4.561271 1.165953
-2.028376 1.903369 -0.085708
-0.437364 12.521054 -0.520917
-0.785036 5.827245 1.758547
-0.707601 9.652188 0.231740
-0.539656 5.815055 0.713404
0.027838 6.808014 0.183897
-1.140292 9.480158 0.976796
-1.602060 2.543379 -0.442012
1.884883 -2.414703 0.968489
1.933938 -2.488011 1.434030
-2.109723 7.544409 -3.019999
0.904220 3.967533 -0.181518
-0.917009 6.250570 0.287409
0.881570 7.125548 -0.225247
-0.597563 9.903762 -0.018940
-0.555267 9.902242 1.549795
0.541604 3.990501 0.086778
-0.766568 6.220189 -0.311915
0.956818 5.312554 1.114612
0.876093 10.282378 0.752235
1.009122 6.957246 0.258893
0.865961 0.051603 0.366525
0.064171 8.126706 -3.939601
1.121613 3.608469 -0.145532
-0.874055 8.173653 -0.251224
0.578765 2.357896 -0.231311
-0.518691 11.266131 0.306778
-1.575906 5.399535 1.094823
-0.478697 8.385279 -0.274567
0.532495 9.703063 0.023151
0.891062 13.044147 0.386686
-2.272336 -0.345928 0.120360
-0.056739 4.381988 -0.037261
-0.612997 8.499502 -3.391452
1.451551 -0.127433 1.018671
1.902443 0.338288 0.317996
-0.106003 3.807307 1.105733
2.083880 0.969626 1.096978
2.155656 1.098247 0.724527
1.598719 10.172081 0.536997
-0.282495 5.740199 0.374365
-0.413817 8.806999 -0.268129
-0.667016 3.778622 0.577758
-0.449460 3.200640 -0.526251
-1.408015 6.478659 1.310620
2.535794 7.743341 0.382032
-0.837295 12.596226 0.657095
-0.591752 13.541930 0.851695
-0.107106 4.196376 -0.653941
0.531892 2.739334 -0.365039
1.084364 2.437751 1.018861
1.408478 5.108259 -0.064584
3.331081 -4.548841 0.491496
-0.631270 3.693957 1.402890
-1.227681 3.627841 1.056802
1.159771 4.160162 1.427339
-0.681803 9.812441 0.601882
0.428988 6.963598 0.280970
0.676850 8.650049 0.623449
-1.408763 3.784584 1.383182
-0.839190 2.085470 1.010092
0.418059 7.317080 0.999078
1.035969 9.474725 1.276607
0.662626 5.605783 0.972616
-0.839130 2.340172 -0.457341
-0.678396 9.518298 1.612873
1.488620 4.810098 1.188959
0.348828 6.525599 -0.538427
1.620344 9.267456 1.481983
0.926915 3.596810 1.453284
-1.668378 7.189535 -2.621189
-2.176757 -0.697361 0.033650
-2.296257 -1.487431 1.179673
-0.357673 6.512855 1.723591
1.028194 6.767248 -0.159776
1.911822 3.086635 0.252826
-1.916135 3.868441 0.733439
0.991469 8.314357 1.440805
-1.398524 10.468827 1.290264
-2.130877 -3.217053 1.038748
2.261703 -1.915115 1.218878
-3.053226 -4.591537 -0.247028
0.693996 4.236171 1.661103
-1.968567 2.773876 0.632111
1.992870 2.220741 0.910998
0.024840 9.722997 0.917528
0.475851 6.451493 1.150527
0.816230 8.527807 1.752885
-1.938626 4.295262 0.166994
-1.066320 8.772685 1.140116
0.692809 3.978224 -0.574167
1.618143 4.366563 0.052306
-0.869614 6.092258 0.704389
0.827681 9.114786 -0.022617
-0.405933 3.187264 0.071359
1.779487 0.486876 0.912897
1.386665 1.864428 0.507112
-0.275311 8.125089 -4.157930
-0.589287 4.560715 0.552472
0.464359 10.102092 0.501540
1.759876 4.169274 0.335960
1.309477 7.569363 0.157466
1.287205 1.356729 -0.234347
0.355648 11.817108 0.357258
-1.101616 8.439808 -3.182893
-3.185710 -4.767969 1.427577
-1.680180 10.371669 0.803232
0.703789 10.075427 0.207116
2.306769 9.395572 1.326607
2.049768 -0.109813 1.323640
1.488909 1.323202 0.145874
2.701818 8.544932 0.991634
-1.746568 8.235606 0.742938
-0.053161 11.293535 0.389489
-0.105377 9.883523 1.552382
-1.269231 8.105105 1.473832
-0.183982 6.008132 1.397958
-2.333592 9.720770 0.302326
1.126401 2.861592 0.548730
1.379121 4.122096 0.318102
1.109100 1.243066 1.174545
-0.065887 7.833125 -3.270795
0.180904 4.895235 1.071010
-0.131153 3.207853 -0.317630
-0.052285 8.346455 -3.581608
-0.103552 3.440603 0.095776
0.018002 13.473895 0.353953
-1.185549 4.601357 -0.586856
2.109549 -1.246712 1.478552
-0.773610 9.982491 1.185224
-1.097465 8.149021 -2.762309
-2.063761 -4.252982 1.121645
-0.754506 6.513332 1.732301
-1.917168 -0.851172 1.202860
1.589687 3.598029 -0.199042
-1.777101 -1.559416 0.736749
2.102224 -3.424869 1.012465
-2.389324 9.268538 1.071025
1.042499 1.946205 0.095005
0.081739 7.085138 0.967386
1.647073 5.090798 0.960016
-2.636008 9.457679 0.317724
-0.430305 4.188387 -0.013370
2.684440 -4.289930 1.099719
1.048892 4.258123 0.535876
0.018977 7.535014 1.005339
-1.738986 3.105654 0.988141
1.968949 2.624309 0.770409
1.475951 4.031148 1.207961
0.809600 4.265734 1.186353
-0.027123 4.554675 1.027390
-1.497488 7.855479 -2.647308
1.688195 7.648980 -2.376815
0.779909 4.473838 0.771641
-2.333504 -0.373486 1.031279
-2.222281 0.701875 0.381899
-0.032031 5.403450 0.407461
-0.570728 6.865345 1.785677
2.420668 7.713493 0.871990
2.893798 -4.593837 -0.091199
-0.666619 5.098753 -0.309010
-0.293634 9.571064 0.667141
-1.777898 -0.744437 0.132989
-0.266921 4.652701 1.792707
-2.745861 8.600011 0.861279
1.495690 0.466748 0.239744
-2.655505 -4.632284 0.093820
-2.590287 -4.241389 0.975524
-0.164478 7.291341 -3.722226
-1.590709 3.612246 0.040577
-1.003959 7.807127 1.518977
-0.561398 12.509916 1.060280
-1.421068 3.977717 -0.093493
1.710642 1.255469 0.492646
-0.306210 7.247533 -2.687797
-2.722409 9.460961 0.781177
0.013691 3.196932 0.747471
-3.247515 7.685125 -0.228371
0.104348 13.245041 0.736813
-0.384961 10.603075 0.207088
1.946739 1.820104 0.156709
1.300916 6.062171 0.042192
-1.277953 4.781700 -0.105215
-1.551875 7.561517 1.074249
-1.587344 9.439823 0.430611
0.673300 5.372417 0.244660
-1.815960 8.115592 -3.762992
0.670049 8.619713 1.362134
0.901092 3.355746 -0.510936
-0.834221 8.615058 0.410082
0.406314 13.130701 1.061296
1.483335 7.462333 0.577837
-0.270596 5.362042 1.082086
0.250835 7.515250 1.375357
-0.100022 4.988382 0.350300
-1.460935 5.104962 1.281335
-0.983322 5.875774 1.083971
0.874883 0.719663 0.755404
2.054263 8.403710 1.226815
0.352330 4.566038 -0.259877
0.871617 3.271328 1.288709
1.676845 2.069298 0.329706
-1.117615 5.155173 1.091904
0.481832 12.389140 -0.482975
0.145080 8.049506 0.525892
1.935217 3.046234 0.654932
-1.242911 2.099203 0.852181
0.566823 3.136255 -0.528182
-0.015451 5.599505 1.343817
-0.037651 11.877705 0.033799
2.647734 7.368765 -0.398149
1.099610 5.920989 1.490120
0.242283 2.800416 1.296239
-0.479200 8.976636 0.464128
-0.318582 10.270216 1.488973
-1.248082 9.275947 0.623979
-1.442033 7.636404 -3.779831
-0.050337 8.650624 1.286335
-1.248057 10.831468 1.153870
-1.165161 5.262922 0.621749
1.124830 9.070205 1.246238
-0.628771 10.516405 0.606426
-0.471218 4.887686 0.277835
1.248601 2.667070 0.322839
-1.665689 4.216600 0.852849
-0.194507 6.524971 1.320976
-1.868957 8.171519 -3.450551
-1.532401 -0.732948 0.514839
1.652267 5.620773 0.581884
-0.605119 8.015608 -2.733909
1.476460 0.173599 1.418145
1.101228 2.630556 1.331887
0.166678 8.631730 1.761727
2.422126 8.110534 0.721783
-1.724044 4.235840 -0.221398
-1.447395 4.770995 1.365813
-1.661864 5.750329 0.872276
0.093712 7.850205 -3.593177
1.845699 3.646554 0.848485
0.818868 2.786996 0.751953
-0.717915 8.428757 0.066545
-0.979041 8.558844 -3.552079
0.660582 3.153198 0.924641
0.457162 3.345516 0.684855
-2.060880 2.695559 0.070283
-1.812679 8.772420 0.401685
0.008614 6.357619 0.675813
1.519295 1.196878 0.903928
2.422200 9.503072 0.939344
-2.176047 8.895992 0.259628
2.201638 -0.791646 0.853191
-0.322000 13.050129 -0.068849
0.596696 12.690767 -0.280599
-0.455536 4.541684 0.936341
1.216637 9.285126 1.612338
-0.893443 6.269064 1.220422
0.375044 7.146679 -0.065767
-3.287534 7.098981 -2.589546
-0.280850 12.176498 1.023299
-0.333307 7.261841 1.689289
1.416247 7.170904 0.378604
-0.351513 7.289592 0.980882
2.026855 -2.077023 1.456116
-0.391837 9.727059 1.212038
1.428685 4.092338 0.722880
-1.005829 4.087613 0.802909
1.251632 9.223760 0.533608
0.143244 12.091201 -0.652856
1.817599 3.905265 0.580799
-2.607349 8.636690 0.060130
-0.759846 4.600964 1.315629
-0.253789 2.826216 -0.172528
-1.811693 5.442108 0.372578
-0.309685 13.759605 0.245749
0.537009 4.696898 0.469770
0.206292 9.067304 0.174788
0.617960 12.577277 0.129919
-0.498972 6.189201 -0.572858
-1.019291 6.466720 0.707065
1.466004 10.625137 1.242183
0.372186 8.019207 0.112622
-0.169856 5.408278 1.746802
0.406898 8.306346 0.712565
0.446709 3.881119 1.616460
-0.806100 10.530769 0.241737
-3.389371 7.555927 -1.020124
-0.805907 6.740120 -3.751098
2.125451 -4.327203 1.734881
-1.666659 5.834660 0.076528
0.132533 12.912566 1.269262
-1.535110 1.923456 -0.164737
1.312889 4.875939 0.299584
-3.324617 7.731724 0.202558
2.528049 9.045622 0.971254
-1.083194 3.442938 -0.642339
0.078645 6.918185 0.592483
-1.437772 0.659080 1.245624
1.252380 0.601393 0.544156
0.006617 11.191077 -0.008727
-0.640701 3.190470 0.520136
1.018958 6.527241 0.207882
0.146593 6.071728 1.026003
0.590029 1.365101 1.072124
-0.734311 7.205012 0.761075
0.360484 10.582313 1.453667
1.548261 5.964483 0.368263
-1.543047 8.193916 0.137125
-0.554502 9.342667 0.514282
-2.268976 -0.408242 1.178068
2.765224 7.528561 0.333550
0.590468 4.232505 -0.214298
1.594414 1.631512 0.830895
1.811937 -1.172158 1.155929
-1.524519 8.414498 -3.330398
2.190983 -2.655128 0.903887
0.363470 13.650845 0.608272
1.866934 10.009996 0.979686
-0.498879 6.740754 -2.897051
-0.008690 5.236954 0.003265
-1.873890 -0.390159 -0.083327
-0.062385 4.657845 -0.356512
1.295195 10.480468 0.626157
-0.069728 7.648765 -3.768534
-1.322519 7.580373 0.713055
-0.465376 10.259872 0.073353
-0.131631 9.264526 0.332396
-0.356572 8.219936 0.395600
-0.429248 6.627192 -3.252410
2.285304 -3.440714 1.214228
-0.865009 6.696283 0.306681
-0.875256 3.843004 -0.665981
1.293674 10.203094 1.212396
1.391012 8.917516 1.519919
0.183403 13.595190 0.918453
-1.996706 7.504669 -3.268987
0.663745 8.555437 0.138275
1.267248 8.833415 0.554901
1.008452 5.593771 0.392545
1.020095 6.819828 0.638533
1.203410 0.267081 0.483641
-0.233244 9.395378 1.065600
-1.809905 2.178051 -0.303323
-2.130467 9.854670 0.654358
-2.132387 -1.722412 0.504447
2.153073 9.163700 0.971579
-0.231929 6.264823 1.048090
-0.618905 6.160667 -0.031609
1.752367 0.105493 1.074887
-0.654257 1.536903 0.521915
0.327087 7.753661 -0.329218
-2.445141 6.798723 -3.245884
0.246662 4.967966 -0.342624
-2.077673 3.457309 0.368332
1.441336 -0.306268 1.429882
0.788591 8.414917 0.960265
-1.725905 5.443646 -0.005147
-1.136486 8.117330 -3.149446
-0.616223 6.674838 1.347359
1.558179 1.795409 1.188153
-2.110650 2.383686 0.680161
-2.195967 1.013254 1.009050
-2.154107 2.020642 0.774874
-1.325409 7.659123 1.441069
1.177873 1.854192 0.962502
-1.741866 -1.028792 1.452862
1.130476 9.857573 1.292118
-1.031190 1.616427 0.202641
-2.681808 -4.606512 0.922383
-0.575178 6.059183 1.007409
-0.255964 2.557962 0.493133
-0.339476 4.522296 1.309291
-0.635164 8.861328 0.100890
2.008538 -4.639630 1.329973
-1.483577 1.247742 0.783102
1.194453 -0.160425 0.237378
-1.161177 7.744985 -3.524859
1.759263 -1.379643 1.541768
2.261722 -2.362714 1.258649
-1.700792 3.618066 0.429382
1.566323 10.680807 0.892979
-1.744998 7.772476 -3.512812
-0.574804 9.313270 1.268063
-3.265572 6.932569 -2.278815
0.130354 5.285751 1.082383
-0.524011 4.970381 0.676113
1.175304 8.056838 0.732948
-1.986330 9.929695 0.186575
-2.593565 -4.366549 -0.307379
-1.349527 6.702707 -3.044933
2.066092 -4.240461 0.873966
-0.822124 3.148846 -0.537848
-1.679558 1.566005 1.089870
-0.032097 13.100786 0.285693
-1.690647 -1.100892 0.761599
-0.075228 6.172651 1.744537
-2.216783 8.882738 0.991937
1.563713 9.017738 1.155784
1.290010 9.672789 1.004901
-1.872169 1.056366 -0.223917
0.238649 5.284970 0.675023
-0.525229 5.275019 1.456190
-0.924836 10.178495 0.091617
1.854749 3.422865 0.109563
0.799934 4.917437 1.653399
-1.602044 7.215946 1.047331
-3.330153 7.635451 -0.569812
1.899856 -1.578625 1.163027
-0.213865 10.696101 0.536157
-0.635089 3.526519 -0.640082
-0.032094 11.136528 0.981679
0.258498 5.654120 0.926244
0.573931 10.214825 1.617537
0.862555 8.059346 1.093898
0.076122 12.979807 -0.178883
-0.055256 4.175352 0.315042
1.205322 0.725083 0.228329
-0.546149 4.343541 1.594767
1.686293 5.239074 0.636181
0.923657 4.479888 -0.202795
-0.119342 12.356247 0.117518
-0.520798 8.403575 0.719304
-2.395780 8.499657 0.746418
0.375426 10.406783 0.251943
-0.712275 12.366361 0.305043
0.308370 11.093008 0.287487
1.685546 -1.812490 1.428610
-1.024288 8.871302 0.121971
-1.096948 7.254055 0.097096
-1.146816 7.957026 0.809019
-0.177186 13.502607 1.039171
-0.645504 8.020820 1.745844
-0.294527 11.450704 0.064652
0.164022 6.399157 0.129687
-0.446271 5.403175 0.630142
0.146128 10.249802 1.496805
0.396609 10.713213 0.961746
1.044845 3.856506 0.256255
0.087475 6.533214 1.768608
-0.045150 10.396914 0.132094
-0.191247 8.084848 -3.085378
-0.184781 6.613453 0.462414
1.433299 3.118902 0.786308
-0.414507 8.606055 0.344171
-1.666261 6.850235 0.849742
-1.110232 1.864073 1.191596
0.023072 2.865064 0.488619
0.084878 10.778725 0.226666
-1.968472 -1.271674 1.050613
-0.177807 7.191074 -4.130010
-0.356616 5.817096 1.758945
-0.624516 4.205963 0.749868
0.734019 3.652132 -0.270571
1.268381 7.441582 -3.190587
-1.861170 10.717141 0.740681
0.338079 4.789774 0.049410
-1.871113 -0.433278 1.119755
1.685098 10.306380 1.394832
0.505655 7.587102 -3.709779
0.866516 10.300086 1.223431
-0.326851 10.921797 1.206808
2.202953 8.537889 0.552801
0.692640 4.964752 0.192967
1.404733 4.501422 0.533273
0.863457 4.245256 0.182547
0.315795 7.660184 0.689549
-1.831748 9.159729 0.230915
1.957913 9.537611 1.472048
1.024991 7.466973 0.376322
1.120162 7.950779 -0.014485
0.210563 11.330252 0.740148
-1.853387 3.503644 0.868206
-2.884888 -4.608997 0.308702
0.819023 3.549399 0.523416
0.352770 2.910184 0.170342
-0.835102 7.613276 0.767020
0.407525 12.554045 1.064547
0.957403 0.022858 0.744153
1.600125 2.856244 0.524613
0.276759 6.095417 -0.592284
0.135057 7.134706 -3.980569
-1.126135 8.285353 0.462314
-2.284084 -3.642760 0.686060
-1.411364 9.436267 -0.076112
0.527061 3.763150 0.775117
-1.557213 7.020518 -3.472160
-1.455304 3.034004 1.184840
0.862997 3.545071 0.942874
-1.492838 -0.861120 1.117178
-0.312696 9.963286 0.355076
0.226874 3.210068 1.436953
-0.770246 7.393684 1.125232
-0.933016 6.618770 -3.029039
1.588219 -0.370359 0.422490
1.467385 -0.490174 0.102675
0.891368 8.941472 0.342209
-1.508177 4.395533 0.040844
1.201630 3.427864 0.583530
2.073952 7.245762 -1.209998
-1.721568 1.778129 -0.375740
-1.494506 3.153432 -0.100684
0.253851 5.874792 1.340870
-2.094965 -2.916786 0.666789
1.377218 2.165641 -0.353566
-2.514232 8.522602 1.120540
1.177412 1.124258 0.157873
-0.009880 6.210990 -0.299278
2.450642 7.322270 0.676218
-0.080609 6.337961 -0.632763
0.327729 4.350859 0.106445
1.914126 9.336590 0.608393
-1.621644 6.495859 0.566066
-0.054684 5.647895 0.044110
-1.866973 3.937134 -0.025086
-0.824273 13.218782 0.554616
-0.619128 4.265939 -0.737546
0.720102 6.188973 -0.451905
-3.057914 -4.573000 0.085011
0.691990 9.947653 1.333972
1.029821 3.163636 0.863925
-1.947201 -2.222350 1.145236
-1.257722 4.003335 1.070331
1.824998 9.278294 1.091621
-2.233576 10.516938 0.625596
-0.955289 9.863668 1.585353
-0.205572 6.468184 0.054902
-1.878627 8.401779 0.387320
-0.912836 8.681140 1.548882
1.141782 8.652220 1.188506
-0.416560 7.699066 -2.967203
0.509019 7.924117 0.448622
0.280896 2.194080 0.389996
-1.585929 -1.311595 1.145663
-1.001816 10.331265 0.631048
0.696868 9.285782 1.046310
1.513368 9.651021 1.540286
-2.320628 -0.750026 1.164495
2.349703 -4.632336 0.133171
-0.721575 12.860059 -0.024392
-1.172239 7.556268 -3.204765
1.851057 0.970343 0.685754
0.136008 10.115263 0.781112
1.309679 2.965302 -0.470183
2.767488 7.110620 0.945452
-0.357786 4.007531 1.428485
0.075523 4.007665 0.745522
0.045891 10.162668 0.393339
1.333460 3.927633 -0.379320
0.448153 5.928108 0.665057
1.839438 8.546509 0.851071
1.603034 9.456396 0.403326
0.003050 5.008064 1.760176
-0.374498 12.049673 0.317301
1.374103 7.344820 -2.752535
-0.747165 1.949708 -0.288113
1.489664 3.677468 0.790143
-1.716267 5.830597 0.457010
1.788617 3.308918 0.906927
0.523908 8.892566 -0.114028
2.540998 8.552096 0.728619
0.070436 8.898994 -0.171895
-1.698112 10.196210 0.301016
1.669054 2.446575 0.503488
-1.529376 8.308519 1.142353
-2.776583 6.820684 -3.056418
-1.541282 4.817114 0.224966
-0.552186 12.208370 0.686855
-2.113072 10.471686 0.982321
1.069887 6.433921 0.573952
2.153937 -4.653324 1.936252
-1.167826 8.670349 0.687140
1.093980 8.082308 0.338821
0.473525 4.143156 0.863294
1.858486 2.733067 0.000771
1.022596 2.438126 0.650154
-0.421850 5.615196 1.406249
-0.056318 4.353578 1.529768
-1.209096 8.977993 1.514045
2.202638 -0.860848 1.340667
1.848766 -0.428720 0.151877
0.725203 9.107407 1.417368
-2.279647 -3.926639 0.300778
-0.261098 3.578882 -0.550534
-0.483872 7.479366 -0.381341
-1.707423 7.473478 -4.052325
-2.446896 -4.199602 1.480378
-0.266777 3.845867 0.118776
2.039909 -3.649625 1.356292
-2.320573 -2.153533 0.972501
0.165258 7.010274 -0.446710
-0.518299 6.261070 1.408181
0.513159 13.077857 -0.301347
1.176710 7.646831 0.710315
1.763445 -0.355686 1.169259
0.702642 9.557276 1.382104
0.680993 13.009110 0.790783
-0.856324 7.652391 -4.269513
